ply
format ascii 1.0
comment
element vertex 775
property float x
property float y
property float z
element face 0
property list uchar int vertex_indices
end_header
-0.00103800585138656 -0.000226691013113373 0.0125276567414403
-0.00101414355759819 -0.000226691013113373 0.0125276567414403
-0.000990281263809828 -0.000226691013113373 0.0125276567414403
-0.000964065210982448 -0.000226138790271111 0.0124971391633153
-0.000942557130363725 -0.000226691013113373 0.0125276567414403
-0.000916456880846194 -0.000226138790271111 0.0124971391633153
-0.000894832542786995 -0.000226691013113373 0.0125276567414403
-0.000866726739775566 -0.000225586596698988 0.0124666206538677
-0.000842981157558305 -0.000225586596698988 0.0124666206538677
-0.000819235121210416 -0.000225586596698988 0.0124666206538677
-0.000797436509636186 -0.000226138790271111 0.0124971391633153
-0.00077363234456806 -0.000226138790271111 0.0124971391633153
-0.000749828179499932 -0.000226138790271111 0.0124971391633153
-0.000726024468562432 -0.000226138790271111 0.0124971391633153
-0.000703935100741329 -0.000226691013113373 0.0125276567414403
-0.000680072806952964 -0.000226691013113373 0.0125276567414403
-0.000656210513164599 -0.000226691013113373 0.0125276567414403
-0.000633888743108227 -0.000227243206685498 0.0125581752508879
-0.000609968320599624 -0.000227243206685498 0.0125581752508879
-0.000587472505867481 -0.00022779542952776 0.0125886928290129
-0.000564860092209918 -0.000228347623099884 0.0126192113384604
-0.000542131308466196 -0.000228899845942146 0.0126497289165854
-0.000520536147412799 -0.00023000426235653 0.012710765004158
-0.000496325081303006 -0.00023000426235653 0.012710765004158
-0.000473247637883538 -0.000230556455928656 0.0127412835136056
-0.000448978443053506 -0.000230556455928656 0.0127412835136056
-0.000424709248223474 -0.000230556455928656 0.0127412835136056
-0.00040044050752407 -0.000230556455928656 0.0127412835136056
-0.00148586561016384 -0.000208758127299093 0.0128938732668757
-0.00145784711287845 -0.000208264033177069 0.0128633556887507
-0.00142994476038785 -0.000207769968325184 0.0128328371793032
-0.00140215877798342 -0.00020727587420316 0.0128023196011782
-0.00137448894037377 -0.000206781355220648 0.0127718010917306
-0.00134693547285029 -0.000206287261098624 0.0127412835136056
-0.00131633058899925 -0.000205299102124714 0.012680247426033
-0.00129217765160969 -0.000205299102124714 0.012680247426033
-0.00126497284376195 -0.000204805037272828 0.0126497289165854
-0.00124087803509264 -0.000204805037272828 0.0126497289165854
-0.00121678322642332 -0.000204805037272828 0.0126497289165854
-0.00118981150023284 -0.000204310943150804 0.0126192113384604
-0.00116295546470653 -0.000203816878298919 0.0125886928290129
-0.00113621579926638 -0.000203322784176895 0.0125581752508879
-0.00111229537675778 -0.000203322784176895 0.0125581752508879
-0.00108573043896329 -0.000202828719325009 0.0125276567414403
-0.00106186814517492 -0.000202828719325009 0.0125276567414403
-0.00103800585138656 -0.000202828719325009 0.0125276567414403
-0.00101414355759819 -0.000202828719325009 0.0125276567414403
-0.000990281263809828 -0.000202828719325009 0.0125276567414403
-0.00096641942415209 -0.000202828719325009 0.0125276567414403
-0.000942557130363725 -0.000202828719325009 0.0125276567414403
-0.00091869483657536 -0.000202828719325009 0.0125276567414403
-0.000894832542786995 -0.000202828719325009 0.0125276567414403
-0.00086884855070994 -0.000202334625202985 0.0124971391633153
-0.00084504483977244 -0.000202334625202985 0.0124971391633153
-0.000821240674704313 -0.000202334625202985 0.0124971391633153
-0.000797436509636186 -0.000202334625202985 0.0124971391633153
-0.00077363234456806 -0.000202334625202985 0.0124971391633153
-0.000749828179499932 -0.000202334625202985 0.0124971391633153
-0.000726024468562432 -0.000202334625202985 0.0124971391633153
-0.000702220303494306 -0.000202334625202985 0.0124971391633153
-0.000680072806952964 -0.000202828719325009 0.0125276567414403
-0.00065780916561683 -0.000203322784176895 0.0125581752508879
-0.000633888743108227 -0.000203322784176895 0.0125581752508879
-0.000611450602965695 -0.000203816878298919 0.0125886928290129
-0.00058889631802837 -0.000204310943150804 0.0126192113384604
-0.000566226117135513 -0.000204805037272828 0.0126497289165854
-0.000543439317317236 -0.000205299102124714 0.012680247426033
-0.00051928637992768 -0.000205299102124714 0.012680247426033
-0.000497516832713569 -0.000206287261098624 0.0127412835136056
-0.00047438114792818 -0.000206781355220648 0.0127718010917306
-0.00045005382437791 -0.000206781355220648 0.0127718010917306
-0.00042674386607749 -0.00020727587420316 0.0128023196011782
-0.000402358413806983 -0.00020727587420316 0.0128023196011782
-0.00149114090417113 -0.000184852207700412 0.0129396505653858
-0.00146130577173261 -0.000184198288867871 0.0128938732668757
-0.00142994476038785 -0.000183326387334437 0.0128328371793032
-0.00140550117939711 -0.000183326387334437 0.0128328371793032
-0.00137777332571291 -0.000182890421932652 0.0128023196011782
-0.0013501616168235 -0.000182454485801005 0.0127718010917306
-0.00132583474740386 -0.000182454485801005 0.0127718010917306
-0.00129528753814243 -0.000181582584267571 0.012710765004158
-0.00126802471422014 -0.000181146618865785 0.012680247426033
-0.00124087803509264 -0.000180710228603511 0.0126497289165854
-0.00121678322642332 -0.000180710228603511 0.0126497289165854
-0.00118981150023284 -0.000180274263201725 0.0126192113384604
-0.00116577482028376 -0.000180274263201725 0.0126192113384604
-0.00113897691347769 -0.000179838327070077 0.0125886928290129
-0.00111229537675778 -0.000179402361668292 0.0125581752508879
-0.00108573043896329 -0.000178966425536643 0.0125276567414403
-0.00106186814517492 -0.000178966425536643 0.0125276567414403
-0.00103800585138656 -0.000178966425536643 0.0125276567414403
-0.00101414355759819 -0.000178966425536643 0.0125276567414403
-0.000990281263809828 -0.000178966425536643 0.0125276567414403
-0.00096641942415209 -0.000178966425536643 0.0125276567414403
-0.000942557130363725 -0.000178966425536643 0.0125276567414403
-0.00091869483657536 -0.000178966425536643 0.0125276567414403
-0.000897012482441607 -0.000179402361668292 0.0125581752508879
-0.00086884855070994 -0.000178530460134858 0.0124971391633153
-0.00084504483977244 -0.000178530460134858 0.0124971391633153
-0.000821240674704313 -0.000178530460134858 0.0124971391633153
-0.000799383821764163 -0.000178966425536643 0.0125276567414403
-0.000775521527975797 -0.000178966425536643 0.0125276567414403
-0.000751659234187432 -0.000178966425536643 0.0125276567414403
-0.000727797394529694 -0.000178966425536643 0.0125276567414403
-0.000705650010634036 -0.000179402361668292 0.0125581752508879
-0.000681729588125433 -0.000179402361668292 0.0125581752508879
-0.000659407705423378 -0.000179838327070077 0.0125886928290129
-0.000635429154194536 -0.000179838327070077 0.0125886928290129
-0.000612932997977449 -0.000180274263201725 0.0126192113384604
-0.00058889631802837 -0.000180274263201725 0.0126192113384604
-0.000566226117135513 -0.000180710228603511 0.0126497289165854
-0.000544747213522593 -0.000181582584267571 0.012710765004158
-0.000521786027543601 -0.000182018520399219 0.0127412835136056
-0.000497516832713569 -0.000182018520399219 0.0127412835136056
-0.00047438114792818 -0.000182454485801005 0.0127718010917306
-0.000451129318347998 -0.000182890421932652 0.0128023196011782
-0.000427761118681658 -0.000183326387334437 0.0128328371793032
-0.000403317537690912 -0.000183326387334437 0.0128328371793032
-0.00149465780439121 -0.000160582983600241 0.0129701690748334
-0.00146649387265955 -0.000160205176188832 0.0129396505653858
-0.00143674593330139 -0.000159638450436648 0.0128938732668757
-0.00141218609487017 -0.000159638450436648 0.0128938732668757
-0.00138105759840636 -0.000158882806343691 0.0128328371793032
-0.0013533878734424 -0.000158504969662144 0.0128023196011782
-0.00132583474740386 -0.000158127162250735 0.0127718010917306
-0.00129528753814243 -0.000157371518157777 0.012710765004158
-0.00126802471422014 -0.00015699368147623 0.012680247426033
-0.00124387177683058 -0.00015699368147623 0.012680247426033
-0.00121678322642332 -0.00015661587406482 0.0126497289165854
-0.00119268887188463 -0.00015661587406482 0.0126497289165854
-0.00116577482028376 -0.000156238037383273 0.0126192113384604
-0.00114173814033469 -0.000156238037383273 0.0126192113384604
-0.00111499836224885 -0.000155860229971863 0.0125886928290129
-0.0010883754083798 -0.000155482393290315 0.0125581752508879
-0.0010644549858712 -0.000155482393290315 0.0125581752508879
-0.0010405345633626 -0.000155482393290315 0.0125581752508879
-0.001016614140854 -0.000155482393290315 0.0125581752508879
-0.000992693718345392 -0.000155482393290315 0.0125581752508879
-0.000968773295836789 -0.000155482393290315 0.0125581752508879
-0.000944853327458813 -0.000155482393290315 0.0125581752508879
-0.00092093290495021 -0.000155482393290315 0.0125581752508879
-0.000897012482441607 -0.000155482393290315 0.0125581752508879
-0.00087097024899863 -0.000155104131748279 0.0125276567414403
-0.000847108409340892 -0.000155104131748279 0.0125276567414403
-0.000823246115552527 -0.000155104131748279 0.0125276567414403
-0.000799383821764163 -0.000155104131748279 0.0125276567414403
-0.000775521527975797 -0.000155104131748279 0.0125276567414403
-0.000751659234187432 -0.000155104131748279 0.0125276567414403
-0.000727797394529694 -0.000155104131748279 0.0125276567414403
-0.000705650010634036 -0.000155482393290315 0.0125581752508879
-0.000683386256652219 -0.000155860229971863 0.0125886928290129
-0.000659407705423378 -0.000155860229971863 0.0125886928290129
-0.000636969677926529 -0.000156238037383273 0.0126192113384604
-0.000612932997977449 -0.000156238037383273 0.0126192113384604
-0.000590320471674203 -0.00015661587406482 0.0126497289165854
-0.000566226117135513 -0.00015661587406482 0.0126497289165854
-0.000544747213522593 -0.000157371518157777 0.012710765004158
-0.000521786027543601 -0.000157749325569187 0.0127412835136056
-0.000498708471478451 -0.000158127162250735 0.0127718010917306
-0.000475514770618506 -0.000158504969662144 0.0128023196011782
-0.000452204699672404 -0.000158882806343691 0.0128328371793032
-0.000428778483931507 -0.000159260613755101 0.0128633556887507
-0.000404276774220523 -0.000159260613755101 0.0128633556887507
-0.00149817459196562 -0.000136197531329735 0.0130006866529584
-0.00146649387265955 -0.000135558144677253 0.0129396505653858
-0.00144184684114797 -0.000135558144677253 0.0129396505653858
-0.00141218609487017 -0.000135078612005427 0.0128938732668757
-0.00138105759840636 -0.000134439225352946 0.0128328371793032
-0.0013533878734424 -0.000134119517391637 0.0128023196011782
-0.00132900287530252 -0.000134119517391637 0.0128023196011782
-0.00129528753814243 -0.000133160452047983 0.012710765004158
-0.00126802471422014 -0.000132840744086674 0.012680247426033
-0.00124387177683058 -0.000132840744086674 0.012680247426033
-0.00121678322642332 -0.000132521065395502 0.0126497289165854
-0.00119268887188463 -0.000132521065395502 0.0126497289165854
-0.00116859406321531 -0.000132521065395502 0.0126497289165854
-0.00114173814033469 -0.000132201357434194 0.0126192113384604
-0.00111770146038561 -0.000132201357434194 0.0126192113384604
-0.00109102026515064 -0.000131881678743022 0.0125886928290129
-0.0010644549858712 -0.000131561970781712 0.0125581752508879
-0.0010405345633626 -0.000131561970781712 0.0125581752508879
-0.001016614140854 -0.000131561970781712 0.0125581752508879
-0.000992693718345392 -0.000131561970781712 0.0125581752508879
-0.000968773295836789 -0.000131561970781712 0.0125581752508879
-0.000944853327458813 -0.000131561970781712 0.0125581752508879
-0.00092093290495021 -0.000131561970781712 0.0125581752508879
-0.000897012482441607 -0.000131561970781712 0.0125581752508879
-0.00087097024899863 -0.00013124229209054 0.0125276567414403
-0.000847108409340892 -0.00013124229209054 0.0125276567414403
-0.000823246115552527 -0.00013124229209054 0.0125276567414403
-0.000799383821764163 -0.00013124229209054 0.0125276567414403
-0.000775521527975797 -0.00013124229209054 0.0125276567414403
-0.000751659234187432 -0.00013124229209054 0.0125276567414403
-0.000729569979012012 -0.000131561970781712 0.0125581752508879
-0.00070736480788106 -0.000131881678743022 0.0125886928290129
-0.000683386256652219 -0.000131881678743022 0.0125886928290129
-0.000661006357875608 -0.000132201357434194 0.0126192113384604
-0.000636969677926529 -0.000132201357434194 0.0126192113384604
-0.000612932997977449 -0.000132201357434194 0.0126192113384604
-0.000590320471674203 -0.000132521065395502 0.0126497289165854
-0.000567592254706791 -0.000132840744086674 0.012680247426033
-0.000546055222373633 -0.000133480130739156 0.0127412835136056
-0.000521786027543601 -0.000133480130739156 0.0127412835136056
-0.000498708471478451 -0.000133799838700465 0.0127718010917306
-0.000476648280663149 -0.000134439225352946 0.0128328371793032
-0.000453280193642491 -0.000134758904044117 0.0128633556887507
-0.000428778483931507 -0.000134758904044117 0.0128633556887507
-0.000404276774220523 -0.000134758904044117 0.0128633556887507
-0.00149817459196562 -0.000111434242377679 0.0130006866529584
-0.0014699526441594 -0.000111172663136607 0.0129701690748334
-0.00144184684114797 -0.000110911113165674 0.0129396505653858
-0.00141218609487017 -0.000110518773574204 0.0128938732668757
-0.0013843419837455 -0.000110257194333133 0.0128633556887507
-0.00135661401741561 -0.0001099956443622 0.0128328371793032
-0.00132900287530252 -0.000109734065121128 0.0128023196011782
-0.00129839753732085 -0.000109210935909124 0.0127412835136056
-0.00127107647203264 -0.00010894938593819 0.012710765004158
-0.00124387177683058 -0.000108687806697119 0.012680247426033
-0.00121678322642332 -0.000108426256726185 0.0126497289165854
-0.00119268887188463 -0.000108426256726185 0.0126497289165854
-0.00116859406321531 -0.000108426256726185 0.0126497289165854
-0.00114173814033469 -0.000108164677485114 0.0126192113384604
-0.00111770146038561 -0.000108164677485114 0.0126192113384604
-0.00109102026515064 -0.000107903127514181 0.0125886928290129
-0.0010670417139218 -0.000107903127514181 0.0125886928290129
-0.00104306316269295 -0.000107903127514181 0.0125886928290129
-0.001016614140854 -0.00010764154827311 0.0125581752508879
-0.000992693718345392 -0.00010764154827311 0.0125581752508879
-0.000968773295836789 -0.00010764154827311 0.0125581752508879
-0.000944853327458813 -0.00010764154827311 0.0125581752508879
-0.00092093290495021 -0.00010764154827311 0.0125581752508879
-0.000897012482441607 -0.00010764154827311 0.0125581752508879
-0.00087097024899863 -0.000107379998302176 0.0125276567414403
-0.000847108409340892 -0.000107379998302176 0.0125276567414403
-0.000823246115552527 -0.000107379998302176 0.0125276567414403
-0.000801331246537821 -0.00010764154827311 0.0125581752508879
-0.000777410824029218 -0.00010764154827311 0.0125581752508879
-0.000753490401520615 -0.00010764154827311 0.0125581752508879
-0.000731342904979274 -0.000107903127514181 0.0125886928290129
-0.00070736480788106 -0.000107903127514181 0.0125886928290129
-0.000685043037824687 -0.000108164677485114 0.0126192113384604
-0.000661006357875608 -0.000108164677485114 0.0126192113384604
-0.000638510089012838 -0.000108426256726185 0.0126497289165854
-0.000614415280343521 -0.000108426256726185 0.0126497289165854
-0.00059174473796572 -0.000108687806697119 0.012680247426033
-0.000567592254706791 -0.000108687806697119 0.012680247426033
-0.000546055222373633 -0.000109210935909124 0.0127412835136056
-0.00052303579502872 -0.000109472515150195 0.0127718010917306
-0.000499900222889014 -0.000109734065121128 0.0128023196011782
-0.000476648280663149 -0.0001099956443622 0.0128328371793032
-0.000453280193642491 -0.000110257194333133 0.0128633556887507
-0.000429795736535673 -0.000110518773574204 0.0128938732668757
-0.000405235898104451 -0.000110518773574204 0.0128938732668757
-0.00149817459196562 -8.66714075562509E-05 0.0130006866529584
-0.0014699526441594 -8.64679570354169E-05 0.0129701690748334
-0.00144184684114797 -8.62645357847212E-05 0.0129396505653858
-0.00141218609487017 -8.59589351429827E-05 0.0128938732668757
-0.0013843419837455 -8.57554846221487E-05 0.0128633556887507
-0.00135661401741561 -8.55520633714539E-05 0.0128328371793032
-0.0013321708905555 -8.55520633714539E-05 0.0128328371793032
-0.00129839753732085 -8.49417410790929E-05 0.0127412835136056
-0.00127107647203264 -8.47383198283964E-05 0.012710765004158
-0.00124387177683058 -8.45348693075633E-05 0.012680247426033
-0.00121971883944103 -8.45348693075633E-05 0.012680247426033
-0.00119268887188463 -8.43314480568685E-05 0.0126497289165854
-0.00116859406321531 -8.43314480568685E-05 0.0126497289165854
-0.00114449925454599 -8.43314480568685E-05 0.0126497289165854
-0.00112040444587668 -8.43314480568685E-05 0.0126497289165854
-0.00109366478043653 -8.41279975360354E-05 0.0126192113384604
-0.00106962855461807 -8.41279975360354E-05 0.0126192113384604
-0.00104306316269295 -8.39245762853397E-05 0.0125886928290129
-0.00101908461146411 -8.39245762853397E-05 0.0125886928290129
-0.000995106060235272 -8.39245762853397E-05 0.0125886928290129
-0.000971127509006432 -8.39245762853397E-05 0.0125886928290129
-0.000947149411908217 -8.39245762853397E-05 0.0125886928290129
-0.000923170860679376 -8.39245762853397E-05 0.0125886928290129
-0.000899192309450536 -8.39245762853397E-05 0.0125886928290129
-0.000873092059933004 -8.37211257645066E-05 0.0125581752508879
-0.000849171637424401 -8.37211257645066E-05 0.0125581752508879
-0.000825251669046424 -8.37211257645066E-05 0.0125581752508879
-0.000801331246537821 -8.37211257645066E-05 0.0125581752508879
-0.000777410824029218 -8.37211257645066E-05 0.0125581752508879
-0.000755321456208115 -8.39245762853397E-05 0.0125886928290129
-0.000731342904979274 -8.39245762853397E-05 0.0125886928290129
-0.000709079717773766 -8.41279975360354E-05 0.0126192113384604
-0.000685043037824687 -8.41279975360354E-05 0.0126192113384604
-0.000661006357875608 -8.41279975360354E-05 0.0126192113384604
-0.000638510089012838 -8.43314480568685E-05 0.0126497289165854
-0.000614415280343521 -8.43314480568685E-05 0.0126497289165854
-0.00059174473796572 -8.45348693075633E-05 0.012680247426033
-0.000568958279632386 -8.47383198283964E-05 0.012710765004158
-0.000546055222373633 -8.49417410790929E-05 0.0127412835136056
-0.00052303579502872 -8.5145191599926E-05 0.0127718010917306
-0.000499900222889014 -8.53486128506208E-05 0.0128023196011782
-0.000477781903353475 -8.57554846221487E-05 0.0128633556887507
-0.000454355574966895 -8.59589351429827E-05 0.0128938732668757
-0.000431321728087606 -8.62645357847212E-05 0.0129396505653858
-0.000406674696576027 -8.62645357847212E-05 0.0129396505653858
-0.00150169103805508 -6.20534111346518E-05 0.013031205162406
-0.00147341130301356 -6.19081186041953E-05 0.0130006866529584
-0.00144524748392758 -6.17627968035987E-05 0.0129701690748334
-0.00141719980963639 -6.16175042731423E-05 0.0129396505653858
-0.00138762625643895 -6.13995508423866E-05 0.0128938732668757
-0.00135984027403451 -6.12542290417918E-05 0.0128633556887507
-0.0013321708905555 -6.11089365113353E-05 0.0128328371793032
-0.00130461742303201 -6.09636147107396E-05 0.0128023196011782
-0.00127412834249082 -6.06730003796874E-05 0.0127412835136056
-0.00124686540592284 -6.05272537186029E-05 0.012710765004158
-0.00121971883944103 -6.0381931918008E-05 0.012680247426033
-0.00119268887188463 -6.02366393875507E-05 0.0126497289165854
-0.00116859406321531 -6.02366393875507E-05 0.0126497289165854
-0.00114449925454599 -6.02366393875507E-05 0.0126497289165854
-0.00112040444587668 -6.02366393875507E-05 0.0126497289165854
-0.00109366478043653 -6.00913175869558E-05 0.0126192113384604
-0.00106962855461807 -6.00913175869558E-05 0.0126192113384604
-0.001045591874669 -6.00913175869558E-05 0.0126192113384604
-0.00102155519471992 -6.00913175869558E-05 0.0126192113384604
-0.000997518514770836 -6.00913175869558E-05 0.0126192113384604
-0.000971127509006432 -5.99460250564985E-05 0.0125886928290129
-0.000949445609003305 -6.00913175869558E-05 0.0126192113384604
-0.000925408929054226 -6.00913175869558E-05 0.0126192113384604
-0.000899192309450536 -5.99460250564985E-05 0.0125886928290129
-0.000875213758221694 -5.99460250564985E-05 0.0125886928290129
-0.000851235206992853 -5.99460250564985E-05 0.0125886928290129
-0.000827257109894638 -5.99460250564985E-05 0.0125886928290129
-0.000803278558665798 -5.99460250564985E-05 0.0125886928290129
-0.000779300007436957 -5.99460250564985E-05 0.0125886928290129
-0.000755321456208115 -5.99460250564985E-05 0.0125886928290129
-0.000733115943592219 -6.00913175869558E-05 0.0126192113384604
-0.000709079717773766 -6.00913175869558E-05 0.0126192113384604
-0.000685043037824687 -6.00913175869558E-05 0.0126192113384604
-0.000662604897682155 -6.02366393875507E-05 0.0126497289165854
-0.000638510089012838 -6.02366393875507E-05 0.0126497289165854
-0.000615897675355275 -6.0381931918008E-05 0.012680247426033
-0.000593168891611553 -6.05272537186029E-05 0.012710765004158
-0.000570323963073037 -6.06730003796874E-05 0.0127412835136056
-0.000546055222373633 -6.06730003796874E-05 0.0127412835136056
-0.00052303579502872 -6.08183221802831E-05 0.0127718010917306
-0.000501091861653895 -6.11089365113353E-05 0.0128328371793032
-0.000477781903353475 -6.12542290417918E-05 0.0128633556887507
-0.000454355574966895 -6.13995508423866E-05 0.0128938732668757
-0.000431321728087606 -6.16175042731423E-05 0.0129396505653858
-0.00040763393310564 -6.17627968035987E-05 0.0129701690748334
-0.00150169103805508 -3.72319934623588E-05 0.013031205162406
-0.00147687007451341 -3.72319934623588E-05 0.013031205162406
-0.00144864801406151 -3.71448296521398E-05 0.0130006866529584
-0.00142054232369576 -3.70576365717815E-05 0.0129701690748334
-0.00139255277812481 -3.69704727615624E-05 0.0129396505653858
-0.00136306641800772 -3.68397124111651E-05 0.0128938732668757
-0.00133533901845415 -3.67525193308077E-05 0.0128633556887507
-0.00130461742303201 -3.65781624402321E-05 0.0128023196011782
-0.00127718010030332 -3.6490998630013E-05 0.0127718010917306
-0.00124985914766079 -3.64038055496565E-05 0.0127412835136056
-0.00122265433981305 -3.63166417394365E-05 0.012710765004158
-0.0011955663561821 -3.62294486590791E-05 0.012680247426033
-0.00117141341879254 -3.62294486590791E-05 0.012680247426033
-0.00114449925454599 -3.61422848488601E-05 0.0126497289165854
-0.00112040444587668 -3.61422848488601E-05 0.0126497289165854
-0.00109630963720736 -3.61422848488601E-05 0.0126497289165854
-0.00107221528266867 -3.61422848488601E-05 0.0126497289165854
-0.00104812047399935 -3.61422848488601E-05 0.0126497289165854
-0.00102402566533003 -3.61422848488601E-05 0.0126497289165854
-0.000997518514770836 -3.60550917685035E-05 0.0126192113384604
-0.000973481834821758 -3.60550917685035E-05 0.0126192113384604
-0.000949445609003305 -3.60550917685035E-05 0.0126192113384604
-0.000925408929054226 -3.60550917685035E-05 0.0126192113384604
-0.000901372249105146 -3.60550917685035E-05 0.0126192113384604
-0.000875213758221694 -3.59674738276573E-05 0.0125886928290129
-0.000851235206992853 -3.59674738276573E-05 0.0125886928290129
-0.000827257109894638 -3.59674738276573E-05 0.0125886928290129
-0.000805225983439456 -3.60550917685035E-05 0.0126192113384604
-0.000781189303490378 -3.60550917685035E-05 0.0126192113384604
-0.000757152623541298 -3.60550917685035E-05 0.0126192113384604
-0.000733115943592219 -3.60550917685035E-05 0.0126192113384604
-0.000709079717773766 -3.60550917685035E-05 0.0126192113384604
-0.000685043037824687 -3.60550917685035E-05 0.0126192113384604
-0.000662604897682155 -3.61422848488601E-05 0.0126497289165854
-0.000638510089012838 -3.61422848488601E-05 0.0126497289165854
-0.000615897675355275 -3.62294486590791E-05 0.012680247426033
-0.000593168891611553 -3.63166417394365E-05 0.012710765004158
-0.000570323963073037 -3.64038055496565E-05 0.0127412835136056
-0.000546055222373633 -3.64038055496565E-05 0.0127412835136056
-0.00052303579502872 -3.6490998630013E-05 0.0127718010917306
-0.00050228361306446 -3.67525193308077E-05 0.0128633556887507
-0.000478915413398117 -3.68397124111651E-05 0.0128938732668757
-0.000455968759599186 -3.69704727615624E-05 0.0129396505653858
-0.000432339093337457 -3.70576365717815E-05 0.0129701690748334
-0.00040763393310564 -3.70576365717815E-05 0.0129701690748334
-0.00150520782562948 -1.24396401501841E-05 0.013061722740531
-0.00147687007451341 -1.2410575790065E-05 0.013031205162406
-0.00144864801406151 -1.23815407000842E-05 0.0130006866529584
-0.00142054232369576 -1.23524763399642E-05 0.0129701690748334
-0.00139255277812481 -1.23234412499834E-05 0.0129396505653858
-0.00136306641800772 -1.22798739799427E-05 0.0128938732668757
-0.00133533901845415 -1.22508096198235E-05 0.0128633556887507
-0.00130772730956475 -1.22217745298428E-05 0.0128328371793032
-0.00127718010030332 -1.21636750797438E-05 0.0127718010917306
-0.00124985914766079 -1.21346107196246E-05 0.0127412835136056
-0.00122265433981305 -1.2105575629643E-05 0.012710765004158
-0.0011955663561821 -1.20765112695239E-05 0.012680247426033
-0.00117141341879254 -1.20765112695239E-05 0.012680247426033
-0.00114726048140299 -1.20765112695239E-05 0.012680247426033
-0.00112310754401343 -1.20765112695239E-05 0.012680247426033
-0.00109895460662388 -1.20765112695239E-05 0.012680247426033
-0.00107221528266867 -1.20474761795431E-05 0.0126497289165854
-0.00104812047399935 -1.20474761795431E-05 0.0126497289165854
-0.00102402566533003 -1.20474761795431E-05 0.0126497289165854
-0.000999930856660718 -1.20474761795431E-05 0.0126497289165854
-0.000973481834821758 -1.2018411819424E-05 0.0126192113384604
-0.000949445609003305 -1.2018411819424E-05 0.0126192113384604
-0.000925408929054226 -1.2018411819424E-05 0.0126192113384604
-0.000901372249105146 -1.2018411819424E-05 0.0126192113384604
-0.000875213758221694 -1.19893767294432E-05 0.0125886928290129
-0.000853298889206988 -1.2018411819424E-05 0.0126192113384604
-0.000829262663388536 -1.2018411819424E-05 0.0126192113384604
-0.000805225983439456 -1.2018411819424E-05 0.0126192113384604
-0.000781189303490378 -1.2018411819424E-05 0.0126192113384604
-0.000757152623541298 -1.2018411819424E-05 0.0126192113384604
-0.000733115943592219 -1.2018411819424E-05 0.0126192113384604
-0.00071079451502079 -1.20474761795431E-05 0.0126497289165854
-0.000686699706351473 -1.20474761795431E-05 0.0126497289165854
-0.000662604897682155 -1.20474761795431E-05 0.0126497289165854
-0.00064005061274483 -1.20765112695239E-05 0.012680247426033
-0.000617379957721346 -1.2105575629643E-05 0.012710765004158
-0.000593168891611553 -1.2105575629643E-05 0.012710765004158
-0.000570323963073037 -1.21346107196246E-05 0.0127412835136056
-0.000546055222373633 -1.21346107196246E-05 0.0127412835136056
-0.00052303579502872 -1.21636750797438E-05 0.0127718010917306
-0.000503475251829339 -1.22798739799427E-05 0.0128938732668757
-0.000478915413398117 -1.22798739799427E-05 0.0128938732668757
-0.000457044253569274 -1.23524763399642E-05 0.0129701690748334
-0.000432339093337457 -1.23524763399642E-05 0.0129701690748334
-0.000408593056989567 -1.23815407000842E-05 0.0130006866529584
-0.00150520782562948 1.2439906242348E-05 0.013061722740531
-0.00147687007451341 1.24108418822289E-05 0.013031205162406
-0.00144864801406151 1.23817482519713E-05 0.0130006866529584
-0.00142054232369576 1.23526838918531E-05 0.0129701690748334
-0.00139255277812481 1.23235902615955E-05 0.0129396505653858
-0.00136306641800772 1.22799644512788E-05 0.0128938732668757
-0.00133533901845415 1.22509000911597E-05 0.0128633556887507
-0.00130772730956475 1.2221806460903E-05 0.0128328371793032
-0.00127718010030332 1.21636484705263E-05 0.0127718010917306
-0.00125285277675305 1.21636484705263E-05 0.0127718010917306
-0.00122558995283076 1.21345841104072E-05 0.0127412835136056
-0.00119844372783388 1.21054904801505E-05 0.012710765004158
-0.00117423266172409 1.21054904801505E-05 0.012710765004158
-0.00114726048140299 1.20764261200314E-05 0.012680247426033
-0.00112310754401343 1.20764261200314E-05 0.012680247426033
-0.00109895460662388 1.20764261200314E-05 0.012680247426033
-0.00107480212336495 1.20764261200314E-05 0.012680247426033
-0.00104812047399935 1.20473324897747E-05 0.0126497289165854
-0.00102402566533003 1.20473324897747E-05 0.0126497289165854
-0.000999930856660718 1.20473324897747E-05 0.0126497289165854
-0.0009758360479914 1.20473324897747E-05 0.0126497289165854
-0.00095174169345271 1.20473324897747E-05 0.0126497289165854
-0.000927646884783392 1.20473324897747E-05 0.0126497289165854
-0.000903552076114075 1.20473324897747E-05 0.0126497289165854
-0.000877335569156068 1.20182681296556E-05 0.0126192113384604
-0.000853298889206988 1.20182681296556E-05 0.0126192113384604
-0.000829262663388536 1.20182681296556E-05 0.0126192113384604
-0.000805225983439456 1.20182681296556E-05 0.0126192113384604
-0.000783078486898115 1.20473324897747E-05 0.0126497289165854
-0.000758983678228798 1.20473324897747E-05 0.0126497289165854
-0.00073488886955948 1.20473324897747E-05 0.0126497289165854
-0.00071079451502079 1.20473324897747E-05 0.0126497289165854
-0.000686699706351473 1.20473324897747E-05 0.0126497289165854
-0.000664203550134385 1.20764261200314E-05 0.012680247426033
-0.00064005061274483 1.20764261200314E-05 0.012680247426033
-0.000617379957721346 1.21054904801505E-05 0.012710765004158
-0.000593168891611553 1.21054904801505E-05 0.012710765004158
-0.000570323963073037 1.21345841104072E-05 0.0127412835136056
-0.00054736311857899 1.21636484705263E-05 0.0127718010917306
-0.000525535442644641 1.2221806460903E-05 0.0128328371793032
-0.00050228361306446 1.22509000911597E-05 0.0128633556887507
-0.000478915413398117 1.22799644512788E-05 0.0128938732668757
-0.000455968759599186 1.23235902615955E-05 0.0129396505653858
-0.000432339093337457 1.23526838918531E-05 0.0129701690748334
-0.00040763393310564 1.23526838918531E-05 0.0129701690748334
-0.00147687007451341 3.72318054238955E-05 0.013031205162406
-0.00144864801406151 3.71450372040269E-05 0.0130006866529584
-0.00142054232369576 3.70578441236703E-05 0.0129701690748334
-0.00139255277812481 3.69706217731745E-05 0.0129396505653858
-0.00136306641800772 3.68398028825013E-05 0.0128938732668757
-0.00133850703370713 3.68398028825013E-05 0.0128938732668757
-0.00131083730874317 3.67526098021438E-05 0.0128633556887507
-0.0012802319707615 3.65781943712914E-05 0.0128023196011782
-0.00125584651849099 3.65781943712914E-05 0.0128023196011782
-0.00122852545320278 3.64909720207965E-05 0.0127718010917306
-0.00120132121213135 3.6403778940439E-05 0.0127412835136056
-0.00117423266172409 3.63165565899441E-05 0.012710765004158
-0.0011500215956143 3.63165565899441E-05 0.012710765004158
-0.00112310754401343 3.62293635095866E-05 0.012680247426033
-0.00109895460662388 3.62293635095866E-05 0.012680247426033
-0.00107480212336495 3.62293635095866E-05 0.012680247426033
-0.00105064918597539 3.62293635095866E-05 0.012680247426033
-0.00102402566533003 3.61421411590917E-05 0.0126497289165854
-0.000999930856660718 3.61421411590917E-05 0.0126497289165854
-0.0009758360479914 3.61421411590917E-05 0.0126497289165854
-0.00095174169345271 3.61421411590917E-05 0.0126497289165854
-0.000927646884783392 3.61421411590917E-05 0.0126497289165854
-0.000903552076114075 3.61421411590917E-05 0.0126497289165854
-0.000877335569156068 3.60549480787342E-05 0.0126192113384604
-0.000853298889206988 3.60549480787342E-05 0.0126192113384604
-0.000829262663388536 3.60549480787342E-05 0.0126192113384604
-0.000807173295567432 3.61421411590917E-05 0.0126497289165854
-0.000783078486898115 3.61421411590917E-05 0.0126497289165854
-0.000758983678228798 3.61421411590917E-05 0.0126497289165854
-0.000736661908172426 3.62293635095866E-05 0.012680247426033
-0.00071250897078287 3.62293635095866E-05 0.012680247426033
-0.000688356487523942 3.62293635095866E-05 0.012680247426033
-0.000664203550134385 3.62293635095866E-05 0.012680247426033
-0.00064159102383114 3.63165565899441E-05 0.012710765004158
-0.000618862352733101 3.6403778940439E-05 0.0127412835136056
-0.000594593157903069 3.6403778940439E-05 0.0127412835136056
-0.000571689987998633 3.64909720207965E-05 0.0127718010917306
-0.000548670673299403 3.65781943712914E-05 0.0128023196011782
-0.000526784868644816 3.67526098021438E-05 0.0128633556887507
-0.000503475251829339 3.68398028825013E-05 0.0128938732668757
-0.000480615791110765 3.69706217731745E-05 0.0129396505653858
-0.000455968759599186 3.69706217731745E-05 0.0129396505653858
-0.000433356345941623 3.71450372040269E-05 0.0130006866529584
-0.000408593056989567 3.71450372040269E-05 0.0130006866529584
-0.00148032873336758 6.21985448967842E-05 0.013061722740531
-0.00145204865684112 6.20532230961885E-05 0.013031205162406
-0.00142388472510945 6.19078720254553E-05 0.0130006866529584
-0.00139583716346395 6.17625502248604E-05 0.0129701690748334
-0.00136790574661323 6.16171991541271E-05 0.0129396505653858
-0.00133850703370713 6.13991871830965E-05 0.0128938732668757
-0.00131083730874317 6.12538653825016E-05 0.0128633556887507
-0.0012802319707615 6.0963646641799E-05 0.0128023196011782
-0.00125584651849099 6.0963646641799E-05 0.0128023196011782
-0.00122852545320278 6.08182955710657E-05 0.0127718010917306
-0.00120419858378314 6.08182955710657E-05 0.0127718010917306
-0.00117987126023287 6.08182955710657E-05 0.0127718010917306
-0.00115278282247129 6.067297377047E-05 0.0127412835136056
-0.00112851362764126 6.067297377047E-05 0.0127412835136056
-0.00110424443281123 6.067297377047E-05 0.0127412835136056
-0.00107738885141554 6.05276226997376E-05 0.012710765004158
-0.00105064918597539 6.03823008991427E-05 0.012680247426033
-0.00102649624858584 6.03823008991427E-05 0.012680247426033
-0.00100234331119628 6.03823008991427E-05 0.012680247426033
-0.000978190373806725 6.03823008991427E-05 0.012680247426033
-0.00095403743641717 6.03823008991427E-05 0.012680247426033
-0.000929884953158242 6.03823008991427E-05 0.012680247426033
-0.000905732015768686 6.03823008991427E-05 0.012680247426033
-0.000879457267444757 6.02369498284086E-05 0.0126497289165854
-0.000855362458775441 6.02369498284086E-05 0.0126497289165854
-0.00083126810423675 6.02369498284086E-05 0.0126497289165854
-0.000809120720341091 6.03823008991427E-05 0.012680247426033
-0.000784967782951536 6.03823008991427E-05 0.012680247426033
-0.000760814845561981 6.03823008991427E-05 0.012680247426033
-0.000738434834139687 6.05276226997376E-05 0.012710765004158
-0.0007159386779226 6.067297377047E-05 0.0127412835136056
-0.000691669483092568 6.067297377047E-05 0.0127412835136056
-0.000667400742393164 6.067297377047E-05 0.0127412835136056
-0.000643131547563132 6.067297377047E-05 0.0127412835136056
-0.000620344635099172 6.08182955710657E-05 0.0127718010917306
-0.000596017311548902 6.08182955710657E-05 0.0127718010917306
-0.00057305612556991 6.0963646641799E-05 0.0128023196011782
-0.000549978569504761 6.11089684423947E-05 0.0128328371793032
-0.000526784868644816 6.12538653825016E-05 0.0128633556887507
-0.000505262368491717 6.16171991541271E-05 0.0129396505653858
-0.000480615791110765 6.16171991541271E-05 0.0129396505653858
-0.000457044253569274 6.17625502248604E-05 0.0129701690748334
-0.000433356345941623 6.19078720254553E-05 0.0130006866529584
-0.000408593056989567 6.19078720254553E-05 0.0130006866529584
-0.00148032873336758 8.70780912893155E-05 0.013061722740531
-0.00145204865684112 8.68746407684824E-05 0.013031205162406
-0.00142722723916883 8.68746407684824E-05 0.013031205162406
-0.0013991214361574 8.66711609775108E-05 0.0130006866529584
-0.00137113200323213 8.64677104566777E-05 0.0129701690748334
-0.00134325916923228 8.62642306657061E-05 0.0129396505653858
-0.00131394719527591 8.59590256143189E-05 0.0128938732668757
-0.00128633559903219 8.57555750934848E-05 0.0128633556887507
-0.00125584651849099 8.53486447816802E-05 0.0128023196011782
-0.00123146106622049 8.53486447816802E-05 0.0128023196011782
-0.00120419858378314 8.51451649907086E-05 0.0127718010917306
-0.00117987126023287 8.51451649907086E-05 0.0127718010917306
-0.0011555439366826 8.51451649907086E-05 0.0127718010917306
-0.00112851362764126 8.49417144698755E-05 0.0127412835136056
-0.00110424443281123 8.49417144698755E-05 0.0127412835136056
-0.00107997523798119 8.49417144698755E-05 0.0127412835136056
-0.00105317778530575 8.47382346789048E-05 0.012710765004158
-0.00102896671919596 8.47382346789048E-05 0.012710765004158
-0.00100234331119628 8.45347841580708E-05 0.012680247426033
-0.000978190373806725 8.45347841580708E-05 0.012680247426033
-0.00095403743641717 8.45347841580708E-05 0.012680247426033
-0.000929884953158242 8.45347841580708E-05 0.012680247426033
-0.000905732015768686 8.45347841580708E-05 0.012680247426033
-0.000879457267444757 8.43313043670992E-05 0.0126497289165854
-0.000857426140989576 8.45347841580708E-05 0.012680247426033
-0.00083327320360002 8.45347841580708E-05 0.012680247426033
-0.000809120720341091 8.45347841580708E-05 0.012680247426033
-0.000786856966359274 8.47382346789048E-05 0.012710765004158
-0.00076264590024948 8.47382346789048E-05 0.012710765004158
-0.000740207872752632 8.49417144698755E-05 0.0127412835136056
-0.0007159386779226 8.49417144698755E-05 0.0127412835136056
-0.000691669483092568 8.49417144698755E-05 0.0127412835136056
-0.000667400742393164 8.49417144698755E-05 0.0127412835136056
-0.000644671958649441 8.51451649907086E-05 0.0127718010917306
-0.000620344635099172 8.51451649907086E-05 0.0127718010917306
-0.000597441577840419 8.53486447816802E-05 0.0128023196011782
-0.00057305612556991 8.53486447816802E-05 0.0128023196011782
-0.000551286578355801 8.57555750934848E-05 0.0128633556887507
-0.000528034636129934 8.59590256143189E-05 0.0128938732668757
-0.000505262368491717 8.62642306657061E-05 0.0129396505653858
-0.000481748959670464 8.64677104566777E-05 0.0129701690748334
-0.000457044253569274 8.64677104566777E-05 0.0129701690748334
-0.000433356345941623 8.66711609775108E-05 0.0130006866529584
-0.000408593056989567 8.66711609775108E-05 0.0130006866529584
-0.00148032873336758 0.000111957637681848 0.013061722740531
-0.00145204865684112 0.000111696058440775 0.013031205162406
-0.00142722723916883 0.000111696058440775 0.013031205162406
-0.0013991214361574 0.000111434449929566 0.0130006866529584
-0.00137113200323213 0.000111172870688496 0.0129701690748334
-0.00134325916923228 0.000110911262177286 0.0129396505653858
-0.0013186121377207 0.000110911262177286 0.0129396505653858
-0.00128938735684469 0.00011051886404554 0.0128938732668757
-0.00125884014758326 0.000109995676293259 0.0128328371793032
-0.00123146106622049 0.000109734097052188 0.0128023196011782
-0.00120419858378314 0.000109472488540979 0.0127718010917306
-0.00117987126023287 0.000109472488540979 0.0127718010917306
-0.0011555439366826 0.000109472488540979 0.0127718010917306
-0.00113121661313233 0.000109472488540979 0.0127718010917306
-0.00110688928958206 0.000109472488540979 0.0127718010917306
-0.00107997523798119 0.000109210909299906 0.0127412835136056
-0.00105570649728179 0.000109210909299906 0.0127412835136056
-0.00103143730245176 0.000109210909299906 0.0127412835136056
-0.00100716810762173 0.000109210909299906 0.0127412835136056
-0.000980544586976368 0.000108949300788698 0.012710765004158
-0.000956333520866575 0.000108949300788698 0.012710765004158
-0.000932122908887409 0.000108949300788698 0.012710765004158
-0.000907911842777615 0.000108949300788698 0.012710765004158
-0.000881579078379131 0.000108687721547626 0.012680247426033
-0.000857426140989576 0.000108687721547626 0.012680247426033
-0.000835278644448234 0.000108949300788698 0.012710765004158
-0.000811068032469067 0.000108949300788698 0.012710765004158
-0.000788746262412695 0.000109210909299906 0.0127412835136056
-0.000764477067582664 0.000109210909299906 0.0127412835136056
-0.000740207872752632 0.000109210909299906 0.0127412835136056
-0.0007159386779226 0.000109210909299906 0.0127412835136056
-0.000691669483092568 0.000109210909299906 0.0127412835136056
-0.000667400742393164 0.000109210909299906 0.0127412835136056
-0.000644671958649441 0.000109472488540979 0.0127718010917306
-0.000620344635099172 0.000109472488540979 0.0127718010917306
-0.000597441577840419 0.000109734097052188 0.0128023196011782
-0.000574422150495506 0.000109995676293259 0.0128328371793032
-0.000551286578355801 0.000110257284804469 0.0128633556887507
-0.000528034636129934 0.00011051886404554 0.0128938732668757
-0.000506454119902282 0.000111172870688496 0.0129701690748334
-0.000482882469715107 0.000111434449929566 0.0130006866529584
-0.000458119634893677 0.000111434449929566 0.0130006866529584
-0.000434373711191473 0.000111696058440775 0.013031205162406
-0.000409552293519179 0.000111696058440775 0.013031205162406
-0.00148724616372159 0.000137476629267136 0.0131227588281035
-0.00145544918697505 0.000136837184074379 0.013061722740531
-0.00142722723916883 0.000136517476113069 0.013031205162406
-0.00140240582149653 0.000136517476113069 0.013031205162406
-0.00137435814720534 0.000136197738881622 0.0130006866529584
-0.00134642729713094 0.000135878030920313 0.0129701690748334
-0.0013186121377207 0.000135558293688865 0.0129396505653858
-0.00128938735684469 0.000135078702476763 0.0128938732668757
-0.00125884014758326 0.000134439257284006 0.0128328371793032
-0.00123146106622049 0.000134119549322696 0.0128023196011782
-0.00120707606808061 0.000134119549322696 0.0128023196011782
-0.0011826906158101 0.000134119549322696 0.0128023196011782
-0.0011555439366826 0.000133799812091248 0.0127718010917306
-0.00113121661313233 0.000133799812091248 0.0127718010917306
-0.00110688928958206 0.000133799812091248 0.0127718010917306
-0.00108256196603179 0.000133799812091248 0.0127718010917306
-0.00105823509661215 0.000133799812091248 0.0127718010917306
-0.00103143730245176 0.000133480104129938 0.0127412835136056
-0.00100716810762173 0.000133480104129938 0.0127412835136056
-0.000982898912791694 0.000133480104129938 0.0127412835136056
-0.000958629717961663 0.000133480104129938 0.0127412835136056
-0.000934360977262258 0.000133480104129938 0.0127412835136056
-0.000910091782432227 0.000133480104129938 0.0127412835136056
-0.000883700776667821 0.000133160366898492 0.012710765004158
-0.000859489710558028 0.000133160366898492 0.012710765004158
-0.000837284197942131 0.000133480104129938 0.0127412835136056
-0.000813015457242727 0.000133480104129938 0.0127412835136056
-0.000788746262412695 0.000133480104129938 0.0127412835136056
-0.000764477067582664 0.000133480104129938 0.0127412835136056
-0.000741980798719894 0.000133799812091248 0.0127718010917306
-0.000717653475169624 0.000133799812091248 0.0127718010917306
-0.000693326151619354 0.000133799812091248 0.0127718010917306
-0.000668999282199712 0.000133799812091248 0.0127718010917306
-0.000646212482381434 0.000134119549322696 0.0128023196011782
-0.000621827030110926 0.000134119549322696 0.0128023196011782
-0.000597441577840419 0.000134119549322696 0.0128023196011782
-0.000575788288066785 0.000134758994515453 0.0128633556887507
-0.000552594474561157 0.000135078702476763 0.0128938732668757
-0.000529909400003296 0.000135558293688865 0.0129396505653858
-0.000507645758667162 0.000136197738881622 0.0130006866529584
-0.000482882469715107 0.000136197738881622 0.0130006866529584
-0.00045919467473314 0.000136517476113069 0.013031205162406
-0.000434373711191473 0.000136517476113069 0.013031205162406
-0.000410511417403107 0.000136837184074379 0.013061722740531
-0.00148724616372159 0.000162472433100144 0.0131227588281035
-0.00145544918697505 0.00016171673046691 0.013061722740531
-0.00143056964058252 0.00016171673046691 0.013061722740531
-0.00140240582149653 0.000161338893785363 0.013031205162406
-0.00137758440382424 0.000161338893785363 0.013031205162406
-0.00134959531238391 0.000160961027833677 0.0130006866529584
-0.00132172213689912 0.00016058319115213 0.0129701690748334
-0.00129396510620912 0.000160205325200444 0.0129396505653858
-0.0012618338893212 0.000159260704226437 0.0128633556887507
-0.00123439656659251 0.000158882838274752 0.0128328371793032
-0.00120707606808061 0.000158505001593204 0.0128023196011782
-0.0011826906158101 0.000158505001593204 0.0128023196011782
-0.00115830516353959 0.000158505001593204 0.0128023196011782
-0.00113121661313233 0.000158127135641518 0.0127718010917306
-0.00110688928958206 0.000158127135641518 0.0127718010917306
-0.00108256196603179 0.000158127135641518 0.0127718010917306
-0.00105823509661215 0.000158127135641518 0.0127718010917306
-0.00103390777306188 0.000158127135641518 0.0127718010917306
-0.00100958044951161 0.000158127135641518 0.0127718010917306
-0.000985253125961337 0.000158127135641518 0.0127718010917306
-0.000960925802411067 0.000158127135641518 0.0127718010917306
-0.000936598932991425 0.000158127135641518 0.0127718010917306
-0.000912271609441155 0.000158127135641518 0.0127718010917306
-0.000885822587602195 0.00015774929895997 0.0127412835136056
-0.000861553392772163 0.00015774929895997 0.0127412835136056
-0.000837284197942131 0.00015774929895997 0.0127412835136056
-0.000813015457242727 0.00015774929895997 0.0127412835136056
-0.000790635445820433 0.000158127135641518 0.0127718010917306
-0.000766308122270163 0.000158127135641518 0.0127718010917306
-0.000741980798719894 0.000158127135641518 0.0127718010917306
-0.000717653475169624 0.000158127135641518 0.0127718010917306
-0.000693326151619354 0.000158127135641518 0.0127718010917306
-0.000670597480521315 0.000158505001593204 0.0128023196011782
-0.000647752893467744 0.000158882838274752 0.0128328371793032
-0.000623309312476998 0.000158882838274752 0.0128328371793032
-0.000600289997777769 0.000159260704226437 0.0128633556887507
-0.000577154312992378 0.000159638540907985 0.0128938732668757
-0.000554556431514875 0.000160205325200444 0.0129396505653858
-0.000531159280134099 0.00016058319115213 0.0129701690748334
-0.000507645758667162 0.000160961027833677 0.0130006866529584
-0.000484016092405433 0.000161338893785363 0.013031205162406
-0.000460270056057544 0.00016171673046691 0.013061722740531
-0.000436407874914862 0.000162094596418597 0.0130922412499785
-0.000411470653932719 0.000162094596418597 0.0130922412499785
-0.00148724616372159 0.000187467782802525 0.0131227588281035
-0.00145884982975466 0.000187031817400739 0.0130922412499785
-0.00143056964058252 0.000186595822728815 0.013061722740531
-0.00140569009418998 0.000186595822728815 0.013061722740531
-0.00137758440382424 0.00018615985732703 0.013031205162406
-0.00134959531238391 0.000185724316785732 0.0130006866529584
-0.00132483202343186 0.000185724316785732 0.0130006866529584
-0.00129396510620912 0.000184852356712024 0.0129396505653858
-0.00126931807469754 0.000184852356712024 0.0129396505653858
-0.00123733217961022 0.000183762413937421 0.0128633556887507
-0.00120995343973239 0.000183326419265497 0.0128328371793032
-0.0011826906158101 0.000182890453863711 0.0128023196011782
-0.00115830516353959 0.000182890453863711 0.0128023196011782
-0.00113391971126908 0.000182890453863711 0.0128023196011782
-0.00110953425899857 0.000182890453863711 0.0128023196011782
-0.00108514880672807 0.000182890453863711 0.0128023196011782
-0.00105823509661215 0.000182454459191787 0.0127718010917306
-0.00103390777306188 0.000182454459191787 0.0127718010917306
-0.00100958044951161 0.000182454459191787 0.0127718010917306
-0.000985253125961337 0.000182454459191787 0.0127718010917306
-0.000960925802411067 0.000182454459191787 0.0127718010917306
-0.000936598932991425 0.000182454459191787 0.0127718010917306
-0.000912271609441155 0.000182454459191787 0.0127718010917306
-0.000885822587602195 0.000182018493790002 0.0127412835136056
-0.000861553392772163 0.000182018493790002 0.0127412835136056
-0.000837284197942131 0.000182018493790002 0.0127412835136056
-0.000814962769370702 0.000182454459191787 0.0127718010917306
-0.000790635445820433 0.000182454459191787 0.0127718010917306
-0.000766308122270163 0.000182454459191787 0.0127718010917306
-0.000741980798719894 0.000182454459191787 0.0127718010917306
-0.000717653475169624 0.000182454459191787 0.0127718010917306
-0.000694982932791822 0.000182890453863711 0.0128023196011782
-0.000670597480521315 0.000182890453863711 0.0128023196011782
