ply
format ascii 1.0
comment
element vertex 788
property float x
property float y
property float z
element face 0
property list uchar int vertex_indices
end_header
-0.000215922393614338 0.00117349145135709 0.00985732860863209
-0.000196536352769249 0.00116985837707207 0.00982681009918451
-0.000176437780970619 0.00116077573526473 0.00975051522254944
-0.000157124401025829 0.00115532613847227 0.00970473792403936
-0.000138203048457701 0.00115169309345739 0.00967422034591436
-0.000119398294814995 0.00114805956504175 0.00964370183646679
-0.000100869311108476 0.00114624304253431 0.00962844304740429
-8.22680079866018E-05 0.00114260996824929 0.00959792453795671
-6.38843460806773E-05 0.00114079344574185 0.00958266574889421
-4.55592670256183E-05 0.00113897692323441 0.00956740695983171
-2.71173637537729E-05 0.00112989428142707 0.00949111208319664
-8.99562257386435E-06 0.00112444468463461 0.00944533478468657
8.98113829039381E-06 0.00112262816212717 0.00943007599562407
2.68994289494692E-05 0.00112081161034959 0.00941481627523899
4.46872714729542E-05 0.00111717856533471 0.00938429869711399
6.23585150710173E-05 0.00111354503691906 0.00935378018766642
7.99138427135491E-05 0.00110991199190418 0.00932326260954142
9.73525714306608E-05 0.00110627891761916 0.00929274410009384
0.00011467538419224 0.00110264587260428 0.00926222652196884
0.000132099468083608 0.00110082935009684 0.00924696773290634
0.000149465535900423 0.00109901279831926 0.00923170801252127
0.000166221593639681 0.00109356323079694 0.00918593164533377
0.00018310809951453 0.00108993015651192 0.00915541313588619
0.000200212929575216 0.00108811363400448 0.00914015434682369
0.000216895984929233 0.00108448055971946 0.00910963583737612
0.000233855493189324 0.00108266403721202 0.00909437704831362
0.000250756418598549 0.00108084751470458 0.00907911825925112
0.000266698786900157 0.00107539791791212 0.00903334096074104
0.000283425326148669 0.00107358139540468 0.00901808217167854
0.000299077050849086 0.00106813134448159 0.00897230487316847
0.000315629203936883 0.00106631482197415 0.00895704608410597
0.000330989830905484 0.00106086522518169 0.00891126878559589
0.000347963871345634 0.00106086522518169 0.00891126878559589
0.000363687690170039 0.00105723218016681 0.00888075120747089
0.000379295818330277 0.00105359910588179 0.00885023269802332
0.000395470134736527 0.00105178258337435 0.00883497390896082
0.000411586776553166 0.00104996606086691 0.00881971511989832
0.000427644948164623 0.00104814950908933 0.00880445539951324
0.00044287512699763 0.00104451646407445 0.00877393782138824
0.00045639016709867 0.00103725034477455 0.00871290173381567
0.000472157582463254 0.00103543382226711 0.00869764294475317
0.000487010037260396 0.00103180074798209 0.0086671244353056
0.000502632130824385 0.00102998422547465 0.0086518656462431
0.000518196549798761 0.00102816770296721 0.0086366068571806
0.000533702498567957 0.00102635069705901 0.00862134713679552
0.000547202893843254 0.00102090112953669 0.00857557076960802
0.000562534910582361 0.00101908457775911 0.00856031104922295
0.000578840016609147 0.00101908457775911 0.00856031104922295
0.000594084727622214 0.00101726805525167 0.00854505226016045
0.000609270855784416 0.00101545153274423 0.00852979347109795
0.000624399309357007 0.00101363501023679 0.00851453468203545
0.000639469292724416 0.00101181845845921 0.00849927496165037
0.000652126821556262 0.00100636889093689 0.00845349859446287
0.000667022872893584 0.00100455233915931 0.0084382388740778
0.000680624993429298 0.00100091929414443 0.0084077212959528
0.000695375610320341 0.000999102771636986 0.0083924625068903
0.000710067757006203 0.000997286219859407 0.00837720278650522
0.000724701662326143 0.000995469697351967 0.00836194399744272
0.000736574566080457 0.00099001964642888 0.00831616669893265
0.000749653982264655 0.000986386601413999 0.00828564912080765
0.000764026762474151 0.000984570078906559 0.00827039033174515
0.000778341072478465 0.00098275352712898 0.00825513061136007
0.000792597141116858 0.00098093700462154 0.00823987182229757
0.000806795535165639 0.000979120482114099 0.00822461303323507
0.000820935346363557 0.000977303959606659 0.00820935424417257
0.000833462198220548 0.00097367088532164 0.008178835734725
0.000849041149374985 0.00097367088532164 0.008178835734725
0.000861393502425581 0.000970037840306759 0.0081483181566
0.000875271847028108 0.00096822128852918 0.00813305843621492
0.000890763605102187 0.00096822128852918 0.00813305843621492
0.000901154113844747 0.000962771721006859 0.00808728206902742
0.000914829007926441 0.00096095516922928 0.00807202234864235
0.000928446114772843 0.00095913864672184 0.00805676355957985
0.000942004638768377 0.000957322124214399 0.00804150477051735
0.000955505488174303 0.000955505601706959 0.00802624598145485
0.000968947867375045 0.00095368904992938 0.00801098626106977
0.00097858270275451 0.000948239482407059 0.00796520989388227
0.000989947434337366 0.000944605953991413 0.0079346913844347
0.00100506090159927 0.000944605953991413 0.0079346913844347
0.00101821297868377 0.000942789431483973 0.0079194325953722
0.00103329738158555 0.000942789431483973 0.0079194325953722
0.00104636226558969 0.000940972908976532 0.0079041738063097
0.00105936867938865 0.000939156357198954 0.00788891408592463
0.00107231685182168 0.000937339834691513 0.00787365529686213
0.00108731451577374 0.000937339834691513 0.00787365529686213
0.00110231172559517 0.000937339834691513 0.00787365529686213
0.00111730938954722 0.000937339834691513 0.00787365529686213
0.00113230659936865 0.000937339834691513 0.00787365529686213
0.00114730426332071 0.000937339834691513 0.00787365529686213
0.0011848269225586 0.000955505601706959 0.00802624598145485
0.00120239632825057 0.000957322124214399 0.00804150477051735
0.00121771370016393 0.000957322124214399 0.00804150477051735
0.00123303061794667 0.000957322124214399 0.00804150477051735
0.00124834798986004 0.000957322124214399 0.00804150477051735
0.00126366490764277 0.000957322124214399 0.00804150477051735
0.00128140915362608 0.00095913864672184 0.00805676355957985
0.00129675513576894 0.00095913864672184 0.00805676355957985
0.00131210157204242 0.00095913864672184 0.00805676355957985
0.00135258879601246 0.000977303959606659 0.00820935424417257
0.00136822587588713 0.000977303959606659 0.00820935424417257
0.00138643469750172 0.000979120482114099 0.00822461303323507
0.00140210084173651 0.000979120482114099 0.00822461303323507
0.00142039685643145 0.00098093700462154 0.00823987182229757
0.00143609206502636 0.00098093700462154 0.00823987182229757
0.00145178681949065 0.00098093700462154 0.00823987182229757
-0.000372363807899611 0.00121256899620805 0.0100251771509647
-0.00035326806917077 0.00121256899620805 0.0100251771509647
-0.000333664158270472 0.0012107234093405 0.0100099183619022
-0.000314117921959786 0.00120887782247293 0.00999465957283974
-0.00029417920414181 0.00120518661946768 0.00996414106339216
-0.000275200176984071 0.00120518661946768 0.00996414106339216
-0.000255828326834099 0.00120334103260012 0.00994888227432966
-0.000235425033384845 0.00119595865585974 0.00988784618675709
-0.000215922393614338 0.00119226748212462 0.00985732860863209
-0.000196841528550499 0.00119042186598693 0.00984206888824701
-0.000177266227879695 0.00118488510538425 0.00979629252105951
-0.000157865654854547 0.0011793478613808 0.00975051522254944
-0.000138639013859488 0.00117381107150799 0.00970473792403936
-0.000119398294814995 0.00116642869476761 0.00964370183646679
-0.000100869311108476 0.00116458310790005 0.00962844304740429
-8.22680079866018E-05 0.0011608919048948 0.00959792453795671
-6.38843460806773E-05 0.00115904631802724 0.00958266574889421
-4.548660612532E-05 0.00115535514429212 0.00955214817076921
-2.71609602939512E-05 0.0011498183544193 0.00950637087225914
-9.03933175972534E-06 0.00114797276755174 0.00949111208319664
9.01020265051296E-06 0.00114428111041586 0.00946059357374907
2.69429128439656E-05 0.00114058993668074 0.00943007599562407
4.47599323732516E-05 0.00113689873367548 0.00939955748617649
6.25618529461686E-05 0.00113505314680792 0.00938429869711399
8.00446323340849E-05 0.0011295163569351 0.00933852139860392
9.76721667462878E-05 0.00112767077006754 0.00932326260954142
0.000114864302533014 0.00112213398019473 0.00927748531103134
0.000132317450784502 0.00112028839332717 0.00926222652196884
0.000149465535900423 0.00111659719032191 0.00923170801252127
0.000166773816481942 0.00111475160345435 0.00921644922345877
0.000183718792561975 0.00111106042971923 0.00918593164533377
0.000200547169716585 0.00110736922671398 0.00915541313588619
0.000217622935417153 0.00110552363984642 0.00914015434682369
0.000234640118266856 0.00110367805297886 0.00912489555776119
0.000250756418598549 0.00109814080897541 0.00907911825925112
0.000267599669418165 0.00109629522210785 0.00906385947018862
0.000283904888090634 0.0010926040191026 0.00903334096074104
0.00030009419080757 0.00108891284536748 0.00900282338261604
0.000316166894599086 0.00108522164236222 0.00897230487316847
0.00033212368243507 0.0010815304686271 0.00894178729504347
0.000348559690728074 0.0010796848524894 0.00892652757465839
0.000363687690170039 0.00107414809188672 0.00888075120747089
0.000379949766432955 0.00107230247574903 0.00886549148708582
0.000396153147199325 0.00107045688888147 0.00885023269802332
0.000412298853376083 0.00106861130201391 0.00883497390896082
0.000428385976701975 0.00106676571514635 0.00881971511989832
0.000443645332540784 0.00106307405801047 0.00878919661045074
0.000457189437001944 0.00105569168127009 0.00872816052287817
0.000472985916726646 0.00105384609440253 0.00871290173381567
0.000487867435883908 0.00105015489139727 0.0086823832243681
0.000503518593808015 0.00104830930452971 0.0086671244353056
0.000519112077142512 0.00104646371766215 0.0086518656462431
0.000534646977626143 0.00104461813079459 0.0086366068571806
0.000548176549907241 0.00103908134092178 0.00859082955867052
0.000563537518360786 0.00103723575405422 0.00857557076960802
0.000578840016609147 0.00103539013791652 0.00856031104922295
0.000594084727622214 0.00103354455104896 0.00854505226016045
0.000609270855784416 0.0010316989641814 0.00852979347109795
0.000625518287221591 0.0010316989641814 0.00852979347109795
0.000640617222303437 0.00102985337731384 0.00851453468203545
0.000653303928141083 0.00102431658744102 0.00846875738352537
0.000668228931192841 0.00102247100057346 0.00845349859446287
0.000683095464039416 0.00102062493030514 0.0084382388740778
0.000697904209650699 0.00101877934343758 0.0084229800850153
0.000711361008385817 0.00101508816970246 0.0083924625068903
0.000726024090711559 0.00101324255356476 0.00837720278650522
0.000739277893056473 0.00100955137982964 0.00834668520838022
0.000752415096475965 0.00100586017682439 0.00831616669893265
0.000765436383939925 0.00100216900308927 0.00828564912080765
0.000779779645658675 0.00100032341622171 0.00827039033174515
0.00079406489130287 0.000998477800084011 0.00825513061136007
0.000806795535165639 0.000994786626348892 0.00822461303323507
0.000820935346363557 0.000992941039481334 0.00820935424417257
0.000835017141486917 0.000991095423343636 0.0081940945237875
0.000849041149374985 0.000989249836476076 0.008178835734725
0.000863006574412187 0.000987404249608516 0.0081635769456625
0.000875271847028108 0.000983712592472632 0.00813305843621492
0.000890763605102187 0.000983712592472632 0.00813305843621492
0.000901154113844747 0.000978175831869954 0.00808728206902742
0.000916558678838469 0.000978175831869954 0.00808728206902742
0.000928446114772843 0.000974484628864697 0.00805676355957985
0.000942004638768377 0.000972639041997138 0.00804150477051735
0.000957322010681743 0.000972639041997138 0.00804150477051735
0.000970793341596922 0.000970793455129578 0.00802624598145485
0.000980457353982187 0.000965256665256761 0.00798046868294477
0.000993754752867278 0.000963411078389201 0.00796520989388227
0.00100699368154719 0.000961565462251504 0.0079499501734972
0.0010201748229918 0.000959719875383945 0.0079346913844347
0.00103329738158555 0.000957874288516385 0.0079194325953722
0.00104838223861797 0.000957874288516385 0.0079194325953722
0.00106141760413136 0.000956028701648826 0.0079041738063097
0.00107231685182168 0.000952337498643568 0.00787365529686213
0.00108731451577374 0.000952337498643568 0.00787365529686213
0.00110444795606392 0.000954183085511128 0.00788891408592463
0.00111730938954722 0.000952337498643568 0.00787365529686213
0.00113450095855764 0.000954183085511128 0.00788891408592463
0.00114952768686981 0.000954183085511128 0.00788891408592463
0.0011848269225586 0.000970793455129578 0.00802624598145485
0.00120011477598122 0.000970793455129578 0.00802624598145485
0.00121771370016393 0.000972639041997138 0.00804150477051735
0.00123303061794667 0.000972639041997138 0.00804150477051735
0.00124834798986004 0.000972639041997138 0.00804150477051735
0.00126366490764277 0.000972639041997138 0.00804150477051735
0.00128140915362608 0.000974484628864697 0.00805676355957985
0.00129675513576894 0.000974484628864697 0.00805676355957985
0.00131210157204242 0.000974484628864697 0.00805676355957985
0.00135510286316276 0.000994786626348892 0.00822461303323507
0.00137076900739755 0.000994786626348892 0.00822461303323507
0.00138900689337225 0.000996632213216452 0.00823987182229757
0.00140470210196716 0.000996632213216452 0.00823987182229757
0.00142039685643145 0.000996632213216452 0.00823987182229757
0.00143609206502636 0.000996632213216452 0.00823987182229757
-0.000372363807899611 0.0012316647349369 0.0100251771509647
-0.000353805872478655 0.00123353941543471 0.0100404368713498
-0.000334172784572556 0.0012316647349369 0.0100251771509647
-0.000314117921959786 0.00122791543248154 0.00999465957283974
-0.000295080311951183 0.00122791543248154 0.00999465957283974
-0.000275200176984071 0.00122416610075604 0.00996414106339216
-0.000256220695695706 0.00122416610075604 0.00996414106339216
-0.000236515059534993 0.00122041679830069 0.00993362348526716
-0.000215922393614338 0.00121104305876153 0.00985732860863209
-0.000196841528550499 0.00120916837826371 0.00984206888824701
-0.000177266227879695 0.00120354442458068 0.00979629252105951
-0.000158112701915559 0.00119979509285518 0.00976577401161194
-0.000139293074607849 0.0011979204416275 0.00975051522254944
-0.000119398294814995 0.00118479782449348 0.00964370183646679
-0.000100869311108476 0.0011829231732658 0.00962844304740429
-8.25296998733568E-05 0.0011829231732658 0.00962844304740429
-6.38843460806773E-05 0.001177298736182 0.00958266574889421
-4.55592670256183E-05 0.00117542408495432 0.00956740695983171
-2.72481533743086E-05 0.00117167475322882 0.00953688845038414
-9.06839611984362E-06 0.00116980010200114 0.00952162966132164
9.03915436494939E-06 0.00116605079954579 0.00949111208319664
2.69865093841439E-05 0.00116042681659261 0.00944533478468657
4.48325932735491E-05 0.00115667748486712 0.00941481627523899
6.25618529461686E-05 0.00115292818241176 0.00938429869711399
8.00446323340849E-05 0.00114730419945859 0.00933852139860392
9.76721667462878E-05 0.00114542954823091 0.00932326260954142
0.000115053220873788 0.00114167976237479 0.00929274410009384
0.000132317450784502 0.00113793045991943 0.00926222652196884
0.000149712924446379 0.00113605580869175 0.00924696773290634
0.000167049927903074 0.00113418112819394 0.00923170801252127
0.000184023968343224 0.00113043182573858 0.00920119043439627
0.000200881409857955 0.00112668249401308 0.00917067192494869
0.00021798623991864 0.0011248078427854 0.00915541313588619
0.000235032487128462 0.00112293319155773 0.00914015434682369
0.000251599285042002 0.00111918385983223 0.00910963583737612
0.00026805016700001 0.00111543455737687 0.00907911825925112
0.000283904888090634 0.0011098105744237 0.00903334096074104
0.000300602817109653 0.00110793592319602 0.00901808217167854
0.000317242163277808 0.00110606127196834 0.00900282338261604
0.000333257192479713 0.00110231194024285 0.00897230487316847
0.000349155397464832 0.00109856263778749 0.00894178729504347
0.000364312573912598 0.00109293820070369 0.00889600999653339
0.000380603601889951 0.00109106354947601 0.00888075120747089
0.000396836159662121 0.00108918886897819 0.00886549148708582
0.000413010930198999 0.00108731421775051 0.00885023269802332
0.000429127117885011 0.00108543956652284 0.00883497390896082
0.00044441553808394 0.00108169023479734 0.00880445539951324
0.000459587134066083 0.00107794093234198 0.00877393782138824
0.000473814250990039 0.00107231694938881 0.00872816052287817
0.000489582120485249 0.00107044229816113 0.00871290173381567
0.000504405056791646 0.00106669296643564 0.0086823832243681
0.000520027604486261 0.00106481831520796 0.0086671244353056
0.000535591569330011 0.00106294366398028 0.0086518656462431
0.000552071515648138 0.00106294366398028 0.0086518656462431
0.000564540238784893 0.0010554445756688 0.00859082955867052
0.000578840016609147 0.00105169524394331 0.00856031104922295
0.000595145576766559 0.00105169524394331 0.00856031104922295
0.000610360769288881 0.00104982059271563 0.00854505226016045
0.000625518287221591 0.00104794594148795 0.00852979347109795
0.000640617222303437 0.00104607129026027 0.00851453468203545
0.000654481034725905 0.00104232195853477 0.00848401617258787
0.000669435102137781 0.0010404473073071 0.00846875738352537
0.00068433104082942 0.00103857265607942 0.00845349859446287
0.000697904209650699 0.00103482332435392 0.0084229800850153
0.000711361008385817 0.00103107402189857 0.0083924625068903
0.000726024090711559 0.00102919934140075 0.00837720278650522
0.000739277893056473 0.00102545003894539 0.00834668520838022
0.000753795540935936 0.00102357538771771 0.00833142641931772
0.000768255626871473 0.0010217007072199 0.00831616669893265
0.000781218331484568 0.00101795140476454 0.00828564912080765
0.000795532982973825 0.00101607675353686 0.00827039033174515
0.00080829234971177 0.00101232696768074 0.00823987182229757
0.000822461225269806 0.00101045231645306 0.00822461303323507
0.000836572426238231 0.00100857766522538 0.00820935424417257
0.000850625157001473 0.00100670298472756 0.0081940945237875
0.000864619646398794 0.00100482833349989 0.008178835734725
0.00088019859755323 0.00100482833349989 0.008178835734725
0.00089577709457704 0.00100482833349989 0.008178835734725
0.000902854378911711 0.000995455048091355 0.00810254085808992
0.000916558678838469 0.000993580396863676 0.00808728206902742
0.000930204508560044 0.00099170571636586 0.00807202234864235
0.0009437920969157 0.000989831065138181 0.00805676355957985
0.000957322010681743 0.000987956413910502 0.00804150477051735
0.000970793341596922 0.000986081762682824 0.00802624598145485
0.000984206656437545 0.000984207082185007 0.00801098626106977
0.000995658468455076 0.00098045777972965 0.00798046868294477
0.00101085958292796 0.00098045777972965 0.00798046868294477
0.00102409839896219 0.000978583128501971 0.00796520989388227
0.00103727919892186 0.000976707993873528 0.0079499501734972
0.00104838223861797 0.000972958691418171 0.0079194325953722
0.00106346664151975 0.000972958691418171 0.0079194325953722
0.00107647339680365 0.000971084040190493 0.0079041738063097
0.00108942168188237 0.000969209359692675 0.00788891408592463
0.00110872075848636 0.000972958691418171 0.0079194325953722
0.00111947468437609 0.000969209359692675 0.00788891408592463
0.00114108437760955 0.000974833342645849 0.0079346913844347
0.00116286845700372 0.00098045777972965 0.00798046868294477
0.00117806911734598 0.00098045777972965 0.00798046868294477
0.00120239632825057 0.000987956413910502 0.00804150477051735
0.0012200243167934 0.000989831065138181 0.00805676355957985
0.00123303061794667 0.000987956413910502 0.00804150477051735
0.00125071673520974 0.000989831065138181 0.00805676355957985
0.0012660627173526 0.000989831065138181 0.00805676355957985
0.00128383602769602 0.00099170571636586 0.00807202234864235
0.001299211074199 0.00099170571636586 0.00807202234864235
0.00133943717305859 0.00101045231645306 0.00822461303323507
0.00135510286316276 0.00101045231645306 0.00822461303323507
0.00137076900739755 0.00101045231645306 0.00822461303323507
0.00138900689337225 0.00101232696768074 0.00823987182229757
0.00140730336219782 0.00101420161890842 0.00825513061136007
0.00142302718102222 0.00101420161890842 0.00825513061136007
0.00143875145397726 0.00101420161890842 0.00825513061136007
-0.000378031241929247 0.00126979771735413 0.0101777678355575
-0.000353805872478655 0.00125266421852367 0.0100404368713498
-0.000334681069389694 0.00125266421852367 0.0100404368713498
-0.00031459748390175 0.00124885630394731 0.0100099183619022
-0.000295530809533028 0.00124885630394731 0.0100099183619022
-0.000276043156073207 0.00124695258835951 0.00999465957283974
-0.000257005546064604 0.00124695258835951 0.00999465957283974
-0.000237241668537969 0.00124314512791378 0.00996414106339216
-0.000216256633755706 0.00123172280511686 0.00987258739769459
-0.000197146362846806 0.00122981908952906 0.00985732860863209
-0.000177818450721956 0.00122601162908333 0.00982681009918451
-0.000158606454552639 0.00122220419790773 0.00979629252105951
-0.000139729040009634 0.0012203004530498 0.00978103280067444
-0.000119587213155769 0.00120507021567651 0.00965896062552929
-0.000101029165089131 0.00120316650008871 0.00964370183646679
-8.25296998733568E-05 0.00120126278450092 0.00962844304740429
-6.39860713410939E-05 0.00119745532405518 0.00959792453795671
-4.56319279259149E-05 0.00119555160846739 0.00958266574889421
-2.72918625601696E-05 0.00119174417729179 0.00955214817076921
-9.08292829990363E-06 0.00118984043243385 0.00953688845038414
9.05368654500853E-06 0.00118603300125826 0.00950637087225914
2.71176404896241E-05 0.00118412928567046 0.00949111208319664
4.49778024284612E-05 0.00117841810963693 0.00944533478468657
6.27653034670009E-05 0.00117461019506057 0.00941481627523899
8.01754219546206E-05 0.00116699530343924 0.00935378018766642
9.78320207269418E-05 0.00116509158785145 0.00933852139860392
0.000115053220873788 0.00115938041181791 0.00929274410009384
0.000132535433485395 0.00115747669623012 0.00927748531103134
0.000149959971507391 0.00115557298064232 0.00926222652196884
0.000167049927903074 0.00115176552019659 0.00923170801252127
0.000184023968343224 0.00114795808902099 0.00920119043439627
0.000201215537353641 0.00114605437343319 0.00918593164533377
0.000218349544420129 0.00114415062857526 0.00917067192494869
0.000235424855990069 0.00114224691298746 0.00915541313588619
0.000252021059748673 0.00113843948181186 0.00912489555776119
0.000268500664581855 0.00113463202136613 0.00909437704831362
0.000284384450032598 0.00112892039120197 0.00904859974980354
0.000301111443411737 0.00112701667561417 0.00903334096074104
0.00031777985394001 0.00112511296002638 0.00901808217167854
0.000333823947502034 0.00112130549958064 0.00898756366223097
0.000349751216847272 0.00111749806840505 0.00895704608410597
0.00036618756662522 0.00111559435281725 0.00894178729504347
0.00038125754999263 0.00110988317678372 0.00889600999653339
0.000397519513609864 0.00110797946119592 0.00888075120747089
0.00041443497119915 0.00110797946119592 0.00888075120747089
0.000429868259068046 0.00110417200075019 0.00885023269802332
0.000445185630981411 0.00110036456957459 0.00881971511989832
0.000460386403969356 0.00109655710912886 0.00878919661045074
0.000474642585253432 0.0010908454789647 0.00874341931194067
0.000489582120485249 0.00108703804778911 0.00871290173381567
0.000505291861260222 0.00108513433220131 0.00869764294475317
0.000520943131830012 0.00108323058734338 0.0086823832243681
0.00053653616103388 0.00108132687175558 0.0086671244353056
0.000552071515648138 0.00107942315616778 0.0086518656462431
0.000566545679633107 0.00107561569572205 0.00862134713679552
0.000579872142878317 0.00106990454895865 0.00857557076960802
0.000595145576766559 0.00106800080410072 0.00856031104922295
0.000610360769288881 0.00106609708851292 0.00854505226016045
0.000625518287221591 0.00106419337292512 0.00852979347109795
0.000640617222303437 0.00106228965733732 0.00851453468203545
0.000654481034725905 0.00105848219689159 0.00848401617258787
0.000669435102137781 0.00105657848130379 0.00846875738352537
0.00068433104082942 0.001054674765716 0.00845349859446287
0.000699168509315877 0.00105277056672743 0.0084382388740778
0.000713947736436413 0.00105086685113964 0.0084229800850153
0.000728669288967337 0.00104896313555184 0.0084077212959528
0.000740629385802008 0.00104325195951831 0.00836194399744272
0.000755176098041592 0.00104134824393051 0.00834668520838022
0.000769665135691563 0.00103944452834271 0.00833142641931772
0.000784095703136354 0.00103754078348478 0.00831616669893265
0.000797000733159837 0.00103373335230918 0.00828564912080765
0.000811285866158349 0.00103182963672138 0.00827039033174515
0.000822461225269806 0.00102611846068785 0.00822461303323507
0.000836572426238231 0.00102421474510006 0.00820935424417257
0.000852209051982278 0.00102421474510006 0.00820935424417257
0.000864619646398794 0.00102040728465432 0.008178835734725
0.00088019859755323 0.00102040728465432 0.008178835734725
0.00089577709457704 0.00102040728465432 0.008178835734725
0.000907955515597548 0.00101659985347873 0.0081483181566
0.000920017337692636 0.00101279193890237 0.00811779964715242
0.000931962789701564 0.00100898450772677 0.00808728206902742
0.000945579555063021 0.00100708076286884 0.00807202234864235
0.000959138533189184 0.00100517704728104 0.00805676355957985
0.000972638928464481 0.00100327333169324 0.00804150477051735
0.000987956300377846 0.00100327333169324 0.00804150477051735
0.000997562184042874 0.00099756215565971 0.00799572747200727
0.00101085958292796 0.000995658440071912 0.00798046868294477
0.00102409839896219 0.000993754724484115 0.00796520989388227
0.00103727919892186 0.000991850979626178 0.0079499501734972
0.00105040221164624 0.000989947264038382 0.0079346913844347
0.00106346664151975 0.000988043548450584 0.0079194325953722
0.00107855149855216 0.000988043548450584 0.0079194325953722
0.00109152873534532 0.000986139832862786 0.0079041738063097
0.00110872075848636 0.000988043548450584 0.0079194325953722
0.00111947468437609 0.00098423608800485 0.00788891408592463
0.00114766734253083 0.000995658440071912 0.00798046868294477
0.00116286845700372 0.000995658440071912 0.00798046868294477
0.0011848269225586 0.00100136961610544 0.00802624598145485
0.00120239632825057 0.00100327333169324 0.00804150477051735
0.00122233493342286 0.00100708076286884 0.00807202234864235
0.00123537029893625 0.00100517704728104 0.00805676355957985
0.00125071673520974 0.00100517704728104 0.00805676355957985
0.00126846052706242 0.00100708076286884 0.00807202234864235
0.00128626278912028 0.00100898450772677 0.00808728206902742
0.001301667354114 0.00100898450772677 0.00808728206902742
0.00133943717305859 0.00102611846068785 0.00822461303323507
0.00135510286316276 0.00102611846068785 0.00822461303323507
0.00137331213890797 0.00102802217627565 0.00823987182229757
0.00138900689337225 0.00102802217627565 0.00823987182229757
0.00140470210196716 0.00102802217627565 0.00823987182229757
0.00142565784709794 0.00103182963672138 0.00827039033174515
0.00144141073028247 0.00103182963672138 0.00827039033174515
-0.000378031241929247 0.00128918409968416 0.0101777678355575
-0.000357569819759754 0.00128531805638756 0.0101472493261099
-0.000335698321993861 0.00127565412737784 0.0100709544494748
-0.000315556720431361 0.00127178856748201 0.0100404368713498
-0.000296431917342401 0.00127178856748201 0.0100404368713498
-0.000276464589294933 0.00126792297831603 0.0100099183619022
-0.000257005546064604 0.00126599019836812 0.00999465957283974
-0.000237967936056 0.00126599019836812 0.00999465957283974
-0.000216590873897075 0.00125246068019243 0.00988784618675709
-0.000197146362846806 0.00124859512029659 0.00985732860863209
-0.000177818450721956 0.00124472907699999 0.00982681009918451
-0.000158606454552639 0.00124086351710416 0.00979629252105951
-0.00013994713535621 0.00124086351710416 0.00979629252105951
-0.000121098331042698 0.00123893070788611 0.00978103280067444
-0.000102148368245079 0.00123506514799027 0.00975051522254944
-8.26604894938925E-05 0.00122153562981458 0.00964370183646679
-6.39860713410939E-05 0.00121573726070069 0.00959792453795671
-4.56319279259149E-05 0.00121380448075277 0.00958266574889421
-2.73354591003487E-05 0.00121187170080486 0.00956740695983171
-9.08292829990363E-06 0.00120800565750826 0.00953688845038414
9.06821872506854E-06 0.00120607287756034 0.00952162966132164
2.71612370298024E-05 0.00120414009761243 0.00950637087225914
4.51956724836717E-05 0.00120220731766451 0.00949111208319664
6.3070820733196E-05 0.00119834172849854 0.00946059357374907
8.06984677910808E-05 0.00119254335938465 0.00941481627523899
9.79918747075967E-05 0.00118481221032285 0.00935378018766642
0.000115430944909653 0.00118094665042701 0.00932326260954142
0.000132753416186288 0.00117708106126104 0.00929274410009384
0.000149959971507391 0.00117321550136521 0.00926222652196884
0.000167325926678522 0.00117128272141729 0.00924696773290634
0.000184634319905725 0.00116934945806861 0.00923170801252127
0.00020154977749501 0.00116548389817278 0.00920119043439627
0.000218712736275935 0.00116355111822486 0.00918593164533377
0.000235424855990069 0.00115968552905889 0.00915541313588619
0.000252442492970398 0.00115775274911097 0.00914015434682369
0.000268951162163701 0.001153887159945 0.00910963583737612
0.000285823477343435 0.00115195437999708 0.00909437704831362
0.000302128583370221 0.00114808882010125 0.00906385947018862
0.000318317544602213 0.00114422323093528 0.00903334096074104
0.000334390589878673 0.00114035767103944 0.00900282338261604
0.000350347036229713 0.00113649208187347 0.00897230487316847
0.00036618756662522 0.00113262652197764 0.00894178729504347
0.000381911498095308 0.00112876093281167 0.00891126878559589
0.000398202526072661 0.00112682815286375 0.00889600999653339
0.00041443497119915 0.00112489537291584 0.00888075120747089
0.000430609400251082 0.00112296210956715 0.00886549148708582
0.000445955836524566 0.00111909654967132 0.00883497390896082
0.000461185673872631 0.00111523096050535 0.00880445539951324
0.000475471261001769 0.0011094326206616 0.00875867903232574
0.000491296917732273 0.00110749981144354 0.00874341931194067
0.000506178324243853 0.00110363425154771 0.00871290173381567
0.000521858546528079 0.00110170147159979 0.00869764294475317
0.00053748075273775 0.00109976866238174 0.0086823832243681
0.000553045171712126 0.00109783588243382 0.0086671244353056
0.000568551007835638 0.00109590310248591 0.0086518656462431
0.00058193571244677 0.00109010473337202 0.00860608834773302
0.000598328011553913 0.00109010473337202 0.00860608834773302
0.000611450682793345 0.0010843059101275 0.00856031104922295
0.000626637265086175 0.00108237313017959 0.00854505226016045
0.000640617222303437 0.00107850757028375 0.00851453468203545
0.000654481034725905 0.00107464198111778 0.00848401617258787
0.000669435102137781 0.00107270920116987 0.00846875738352537
0.00068433104082942 0.00107077642122195 0.00845349859446287
0.000699168509315877 0.00106884361200389 0.0084382388740778
0.00071524110046171 0.00106884361200389 0.0084382388740778
0.000729991717352754 0.00106691083205598 0.0084229800850153
0.000743332258647396 0.00106304527216014 0.0083924625068903
0.000756556655147246 0.00105917968299417 0.00836194399744272
0.000772484378623112 0.00105917968299417 0.00836194399744272
0.000785534276316563 0.00105531412309834 0.00833142641931772
0.00079846848334585 0.00105144853393237 0.00830090790987015
0.00081278268070448 0.00104951575398445 0.00828564912080765
0.000822461225269806 0.00104178415079202 0.00822461303323507
0.0008381273695046 0.00104178415079202 0.00822461303323507
0.000852209051982278 0.0010398513708441 0.00820935424417257
0.000866232718385401 0.00103791856162605 0.0081940945237875
0.00088019859755323 0.00103598578167813 0.008178835734725
0.00089577709457704 0.00103598578167813 0.008178835734725
0.000907955515597548 0.0010321202217823 0.0081483181566
0.000920017337692636 0.00102825463261633 0.00811779964715242
0.000933721183488766 0.00102632185266841 0.00810254085808992
0.000947367354695286 0.00102438907272049 0.00808728206902742
0.000960955055696624 0.00102245626350244 0.00807202234864235
0.0009763301021996 0.00102245626350244 0.00807202234864235
0.000987956300377846 0.00101859070360661 0.00804150477051735
0.000997562184042874 0.00101279233449272 0.00799572747200727
0.00101085958292796 0.0010108595545448 0.00798046868294477
0.00102606024327023 0.0010108595545448 0.00798046868294477
0.00103727919892186 0.0010069935112482 0.0079499501734972
0.00105040221164624 0.00100506073130029 0.0079346913844347
0.00106551567890814 0.00100506073130029 0.0079346913844347
0.00107855149855216 0.00100312795135237 0.0079194325953722
0.00109363590145395 0.00100312795135237 0.0079194325953722
0.00110872075848636 0.00100312795135237 0.0079194325953722
0.00111947468437609 0.000999262362186398 0.00788891408592463
0.00113450095855764 0.000999262362186398 0.00788891408592463
0.00114952768686981 0.000999262362186398 0.00788891408592463
0.00118707941046783 0.00101859070360661 0.00804150477051735
0.00120467788051991 0.00102052348355452 0.00805676355957985
0.00122233493342286 0.00102245626350244 0.00807202234864235
0.00123770997992584 0.00102245626350244 0.00807202234864235
0.00125545411326346 0.00102438907272049 0.00808728206902742
0.00127085867825718 0.00102438907272049 0.00808728206902742
0.00128626278912028 0.00102438907272049 0.00808728206902742
0.001301667354114 0.00102438907272049 0.00808728206902742
0.00133943717305859 0.00104178415079202 0.00822461303323507
0.00135510286316276 0.00104178415079202 0.00822461303323507
0.00137076900739755 0.00104178415079202 0.00822461303323507
0.00138900689337225 0.00104371693073994 0.00823987182229757
0.00142291115242101 0.00105724690304626 0.00834668520838022
0.00143880935740613 0.00105724690304626 0.00834668520838022
0.00145736740547277 0.00105917968299417 0.00836194399744272
0.00147329467481801 0.00105917968299417 0.00836194399744272
-0.00037916475197389 0.00131249371649963 0.0102082854136825
-0.000357569819759754 0.00130464630999735 0.0101472493261099
-0.000336206948295945 0.00129679890349507 0.0100862132385373
-0.000316515844315289 0.00129483705918704 0.0100709544494748
-0.000296431917342401 0.00129091337057097 0.0100404368713498
-0.000276886022516659 0.00128895149699279 0.0100251771509647
-0.000257397914926211 0.00128698965268476 0.0100099183619022
-0.000237967936056 0.00128502780837672 0.00999465957283974
-0.000218262187249603 0.00128110363635988 0.00996414106339216
-0.000197756714409305 0.00127129438554957 0.00988784618675709
-0.000178094562143087 0.00126540882335532 0.00984206888824701
-0.000159100548674663 0.00126344697904729 0.00982681009918451
-0.00013994713535621 0.00125952329043122 0.00979629252105951
-0.000121098331042698 0.00125756141685304 0.00978103280067444
-0.000102308222225734 0.00125559957254501 0.00976577401161194
-8.30525168705552E-05 0.00124579032173469 0.00968947913497686
-6.4494922934543E-05 0.00124382847742665 0.00967422034591436
-4.59948909424593E-05 0.00124186614971785 0.00965896062552929
-2.73354591003487E-05 0.0012300950545995 0.00956740695983171
-9.11165117507915E-06 0.0012300950545995 0.00956740695983171
9.08275090512767E-06 0.00122617133671329 0.00953688845038414
2.72048335699816E-05 0.00122420949240526 0.00952162966132164
4.52683333839691E-05 0.00122224764809722 0.00950637087225914
6.32741586083464E-05 0.00122028580378918 0.00949111208319664
8.09599343864686E-05 0.00121440024159494 0.00944533478468657
9.81520701731952E-05 0.00120459099078462 0.00936903990805149
0.000115619863250426 0.00120066681876779 0.00933852139860392
0.000133189268942391 0.00119870497445975 0.00932326260954142
0.000150207018568402 0.00119281941226551 0.00927748531103134
0.000167602038099653 0.00119085756795747 0.00926222652196884
0.000184939383041291 0.00118889572364943 0.00924696773290634
0.000201884017636379 0.00118497200576322 0.00921644922345877
0.000218712736275935 0.00118104831714715 0.00918593164533377
0.000235817224851676 0.00117908644356898 0.00917067192494869
0.000252442492970398 0.00117516275495291 0.00914015434682369
0.000269401547099864 0.00117320091064487 0.00912489555776119
0.000285823477343435 0.00116927719275866 0.00909437704831362
0.000302128583370221 0.00116535350414259 0.00906385947018862
0.000318855235264415 0.00116339117643379 0.00904859974980354
0.000334957344900994 0.00115946748781772 0.00901808217167854
0.000350942855612153 0.00115554376993151 0.00898756366223097
0.00036681245036778 0.00115162008131544 0.00895704608410597
0.000383219281654983 0.0011496582370074 0.00894178729504347
0.000398885538535459 0.00114573451912119 0.00891126878559589
0.000415147048022067 0.00114377267481316 0.00889600999653339
0.000431350882919062 0.00114181083050512 0.00888075120747089
0.000446726042067721 0.00113788711261891 0.00885023269802332
0.000461985285260848 0.00113396342400284 0.00881971511989832
0.000476299595265162 0.00112807786180859 0.00877393782138824
0.000492154203710102 0.00112611601750056 0.00875867903232574
0.000507064787227483 0.00112219184548372 0.00872816052287817
0.000522774073871829 0.00112023000117569 0.00871290173381567
0.000539370277630432 0.00112023000117569 0.00871290173381567
0.000554018827776115 0.00111630628328948 0.0086823832243681
0.000569553728259745 0.00111434443898144 0.0086671244353056
0.000583999169369539 0.00111042075036537 0.0086366068571806
0.00060044959719692 0.00111042075036537 0.0086366068571806
0.000612540937782753 0.00110257334386309 0.00857557076960802
0.000627756242950758 0.00110061147028492 0.00856031104922295
0.000641765264528138 0.00109668778166884 0.00852979347109795
0.000654481034725905 0.0010908022194746 0.00848401617258787
0.000669435102137781 0.00108884037516656 0.00846875738352537
0.000685566276134479 0.00108884037516656 0.00846875738352537
0.000700432696335373 0.00108687853085853 0.00845349859446287
0.00071524110046171 0.00108491620314973 0.0084382388740778
0.000729991717352754 0.00108295435884169 0.0084229800850153
0.000744683751392933 0.00108099251453366 0.0084077212959528
0.0007579372122529 0.00107706879664745 0.00837720278650522
0.000772484378623112 0.00107510695233941 0.00836194399744272
0.000786972962142456 0.00107314510803138 0.00834668520838022
0.00080140387107219 0.00107118326372334 0.00833142641931772
0.000814279495250612 0.00106725954583713 0.00830090790987015
0.00082856508237975 0.00106529770152909 0.00828564912080765
0.0008381273695046 0.00105745029502681 0.00822461303323507
0.000853793059608766 0.00105745029502681 0.00822461303323507
0.000867846131856953 0.00105548845071878 0.00820935424417257
0.00088019859755323 0.00105156473283257 0.008178835734725
0.00089577709457704 0.00105156473283257 0.008178835734725
0.000907955515597548 0.0010476410442165 0.0081483181566
0.000920017337692636 0.00104371687219966 0.00811779964715242
0.000933721183488766 0.00104175502789162 0.00810254085808992
0.000949154812842607 0.00104175502789162 0.00810254085808992
0.000962771465558382 0.00103979318358359 0.00808728206902742
0.0009763301021996 0.00103783131000541 0.00807202234864235
0.000991705602833203 0.00103783131000541 0.00807202234864235
0.00100327367229121 0.00103390762138934 0.00804150477051735
0.00101085958292796 0.00102606021488706 0.00798046868294477
0.00102606024327023 0.00102606021488706 0.00798046868294477
0.00104126135774312 0.00102606021488706 0.00798046868294477
0.0010544420450571 0.00102409837057903 0.00796520989388227
0.00106961409516987 0.00102409837057903 0.00796520989388227
0.00108270770204919 0.00102213649700085 0.0079499501734972
0.00109995774126479 0.00102409837057903 0.00796520989388227
0.00111299321942386 0.00102213649700085 0.0079499501734972
0.00112597045621702 0.00102017465269282 0.0079346913844347
0.00114766734253083 0.00102606021488706 0.00798046868294477
0.00116731530410193 0.00102998390350313 0.00801098626106977
0.00118707941046783 0.00103390762138934 0.00804150477051735
0.00120239632825057 0.00103390762138934 0.00804150477051735
0.00122464543740664 0.00103979318358359 0.00808728206902742
0.00124005000240037 0.00103979318358359 0.00808728206902742
0.00125545411326346 0.00103979318358359 0.00808728206902742
0.001273256487967 0.00104175502789162 0.00810254085808992
0.00128868966319022 0.00104175502789162 0.00810254085808992
0.00130412329254406 0.00104175502789162 0.00810254085808992
0.00135510286316276 0.00105745029502681 0.00822461303323507
0.00137076900739755 0.00105745029502681 0.00822461303323507
0.00142551241265166 0.00107510695233941 0.00836194399744272
0.0014414396819969 0.00107510695233941 0.00836194399744272
0.0014626865248595 0.00107903067022562 0.0083924625068903
0.001484048829547 0.00108295435884169 0.0084229800850153
0.00150009281046334 0.00108295435884169 0.0084229800850153
-0.000377464486906925 0.00132596550154544 0.010162509046495
-0.000357569819759754 0.00132397456360715 0.0101472493261099
-0.000337224313545795 0.00131999274627084 0.0101167317479849
-0.000317475080844901 0.00131800183760268 0.0101014729589224
-0.000297332912506092 0.00131401999099624 0.0100709544494748
-0.000277307114253441 0.00131003817365993 0.0100404368713498
-0.000257397914926211 0.00130605587292285 0.0100099183619022
-0.000238331240557488 0.00130605587292285 0.0100099183619022
-0.000218930780178025 0.0013040649642547 0.00999465957283974
-0.000197756714409305 0.00129012854503734 0.00988784618675709
-0.000178094562143087 0.00128415578976273 0.00984206888824701
-0.000159100548674663 0.00128216488109458 0.00982681009918451
-0.00013994713535621 0.00127818306375827 0.00979629252105951
-0.000121098331042698 0.00127619167168935 0.00978103280067444
-0.000102468076206388 0.00127619167168935 0.00978103280067444
-8.35757879983808E-05 0.00127220985435304 0.00975051522254944
-6.50032077516823E-05 0.00127220985435304 0.00975051522254944
-4.55592670256183E-05 0.00124831886252477 0.00956740695983171
-2.73354591003487E-05 0.00124831886252477 0.00956740695983171
-9.09711899501914E-06 0.00124632795385662 0.00955214817076921
9.08275090512767E-06 0.00124433701591832 0.00953688845038414
2.72048335699816E-05 0.00124234610725017 0.00952162966132164
4.53409942842674E-05 0.00124234610725017 0.00952162966132164
6.33758838687621E-05 0.00124035519858201 0.00950637087225914
8.13521906023939E-05 0.00123836428991386 0.00949111208319664
9.89512274307859E-05 0.00123239108050863 0.00944533478468657
0.000116186505627065 0.00122442741656587 0.00938429869711399
0.000133625234344176 0.00122044556995942 0.00935378018766642
0.000150454065629415 0.00121248190601667 0.00929274410009384
0.000167878149520784 0.00121049099734851 0.00927748531103134
0.000184939383041291 0.0012065091800122 0.00924696773290634
0.000201884017636379 0.00120252733340576 0.00921644922345877
0.000219076040777423 0.0012005364247376 0.00920119043439627
0.000236209481067602 0.00119854551606945 0.00918593164533377
0.000252863926192125 0.00119456321533237 0.00915541313588619
0.000269401547099864 0.00119058139799606 0.00912489555776119
0.000285823477343435 0.00118659955138961 0.00909437704831362
0.000302128583370221 0.0011826177340533 0.00906385947018862
0.000318855235264415 0.00118062679611501 0.00904859974980354
0.000334957344900994 0.0011766449787787 0.00901808217167854
0.000350942855612153 0.00117266313217225 0.00898756366223097
0.00036743733411034 0.0011706722235041 0.00897230487316847
0.000383873229757661 0.00116868131483595 0.00895704608410597
0.000399568550998256 0.0011646994682295 0.00892652757465839
0.000415859124844983 0.00116270855956134 0.00891126878559589
0.000432092024102098 0.00116071765089319 0.00889600999653339
0.000448266340508347 0.00115872674222503 0.00888075120747089
0.000461985285260848 0.00115076262415165 0.00881971511989832
0.000477956263791947 0.00114877168621336 0.00880445539951324
0.000493011602333614 0.00114478986887705 0.00877393782138824
0.000507951250211114 0.0011408080222706 0.00874341931194067
0.000523689601215578 0.00113881711360245 0.00872816052287817
0.0005403148693343 0.00113881711360245 0.00872816052287817
0.000554992371194421 0.00113483529626614 0.00869764294475317
0.000570556448683853 0.00113284435832784 0.0086823832243681
0.000585030954153765 0.00112886254099153 0.0086518656462431
0.00060044959719692 0.00112687163232338 0.0086366068571806
0.000615810678296146 0.00112488069438509 0.00862134713679552
0.000628875108169658 0.00111890796838062 0.00857557076960802
0.000642913306752841 0.00111492566764355 0.00854505226016045
0.000656835589380492 0.00111094385030724 0.00851453468203545
0.000670641273082722 0.00110696200370079 0.00848401617258787
0.000685566276134479 0.00110497109503264 0.00846875738352537
0.000700432696335373 0.00110298018636448 0.00845349859446287
0.000716534805971952 0.00110298018636448 0.00845349859446287
0.00073131414573817 0.00110098924842619 0.0084382388740778
0.000746035244138468 0.00109899833975803 0.0084229800850153
0.000760698667949155 0.00109700743108988 0.0084077212959528
0.000773894000088884 0.00109302558448343 0.00837720278650522
0.000788411647968349 0.00109103467581528 0.00836194399744272
0.000802871621258203 0.00108904376714712 0.00834668520838022
0.000817273465827817 0.00108705285847897 0.00833142641931772
0.00082856508237975 0.00108108010320436 0.00828564912080765
0.000841237256037338 0.00107709780246729 0.00825513061136007
0.000855377067235254 0.00107510689379913 0.00823987182229757
0.00086945920384356 0.00107311598513098 0.00822461303323507
0.000883482757601001 0.00107112507646282 0.00820935424417257
0.000897448295283885 0.00106913413852453 0.0081940945237875
0.000913056310798441 0.00106913413852453 0.0081940945237875
0.000925205213328202 0.00106515232118822 0.0081635769456625
0.00093547957727597 0.00105917956591362 0.00811779964715242
0.00095094227098993 0.00105917956591362 0.00811779964715242
0.000966404510573263 0.00105917956591362 0.00811779964715242
0.000978176030552104 0.00105519774857731 0.00808728206902742
0.000991705602833203 0.00105320681063902 0.00807202234864235
0.00100517738787901 0.00105121590197086 0.00805676355957985
0.00101665781012603 0.00104723408463455 0.00802624598145485
0.0010299839318863 0.00104524314669626 0.00801098626106977
0.00104325226641127 0.00104325223802811 0.00799572747200727
0.00105646201808538 0.00104126132935995 0.00798046868294477
0.00107166313255827 0.00104126132935995 0.00798046868294477
0.00108686379290053 0.00104126132935995 0.00798046868294477
0.00110206490737342 0.00104126132935995 0.00798046868294477
0.00111726556771568 0.00104126132935995 0.00798046868294477
0.00113246668218857 0.00104126132935995 0.00798046868294477
0.00114986170171982 0.00104325223802811 0.00799572747200727
0.00116953861500536 0.00104723408463455 0.00802624598145485
0.0011848269225586 0.00104723408463455 0.00802624598145485
0.00121380443108224 0.00105917956591362 0.00811779964715242
0.00122926667066557 0.00105917956591362 0.00811779964715242
0.00124472936437953 0.00105917956591362 0.00811779964715242
0.00126019160396286 0.00105917956591362 0.00811779964715242
0.00127805210738665 0.00106117047458177 0.00813305843621492
0.0012935434113301 0.00106117047458177 0.00813305843621492
0.00130412329254406 0.00105718865724547 0.00810254085808992
0.00142551241265166 0.00109103467581528 0.00836194399744272
0.0014414396819969 0.00109103467581528 0.00836194399744272
0.00147066469171218 0.00110098924842619 0.0084382388740778
0.00148673728285801 0.00110098924842619 0.0084382388740778
0.00150281032813447 0.00110098924842619 0.0084382388740778
-0.00037916475197389 0.00135138273860017 0.0102082854136825
-0.000358107623067639 0.00134532281951535 0.010162509046495
-0.000338750305097727 0.00134532281951535 0.010162509046495
-0.000317954642786866 0.00133926241702977 0.0101167317479849
-0.000298234020315465 0.00133724244400149 0.0101014729589224
-0.000278149980696894 0.00133320246867481 0.0100709544494748
-0.000258182765295108 0.00132916252261826 0.0100404368713498
-0.000239057962206147 0.00132916252261826 0.0100404368713498
-0.000219599260460762 0.00132714252031985 0.0100251771509647
-0.000196536352769249 0.00130088232901125 0.00982681009918451
-0.000177818450721956 0.00130088232901125 0.00982681009918451
-0.000159100548674663 0.00130088232901125 0.00982681009918451
