ply
format ascii 1.0
comment
element vertex 789
property float x
property float y
property float z
element face 0
property list uchar int vertex_indices
end_header
-0.00066112253460146 0.00229912755922193 0.0103608760982752
-0.000640442788246132 0.00229574156126806 0.0103456173092127
-0.000617990457408484 0.00228558353813631 0.0102998400107026
-0.000598371560197501 0.00228558353813631 0.0102998400107026
-0.000578753117117144 0.00228558353813631 0.0102998400107026
-0.000559134219906159 0.00228558353813631 0.0102998400107026
-0.00054191324505068 0.00229574156126806 0.0103456173092127
-0.000522207154759338 0.00229574156126806 0.0103456173092127
-0.000503983800964696 0.0023025135571758 0.0103761348873377
-0.000485643848244633 0.0023092860364843 0.0104066533967853
-0.000466504512975614 0.00231267203443817 0.0104219121858478
-0.000447307503116982 0.00231605803239204 0.0104371709749103
-0.000427427026664927 0.00231605803239204 0.0104371709749103
-0.000408738301623435 0.00232283005756991 0.0104676894843578
-0.000390499961518105 0.00233298805143152 0.0105134658515453
-0.000370474617396082 0.00233298805143152 0.0105134658515453
-0.000351466184393281 0.00233976053074002 0.0105439843609929
-0.00033234138130432 0.00234653252664776 0.0105745019391179
-0.000313100433420567 0.00235330455182564 0.0106050204485655
-0.000292900703137829 0.00235330455182564 0.0106050204485655
-0.000273485256447678 0.00236007654773338 0.0106355380266905
-0.000254316969464223 0.00237023457086512 0.0106813153252006
-0.000234305703391631 0.00237362056881899 0.0106965741142631
-0.000213931586948179 0.00237362056881899 0.0106965741142631
-0.000194385463283176 0.00238377904608136 0.0107423514127731
-0.00017417074668975 0.00238716504403523 0.0107576102018356
-0.000153680372805822 0.00238716504403523 0.0107576102018356
-0.000133567494118497 0.00239393706921311 0.0107881287112832
-0.000113178391364359 0.00239732306716698 0.0108033875003457
-9.26003702694462E-05 0.00239732306716698 0.0108033875003457
-7.22259123410495E-05 0.00240409554647548 0.0108339060097933
-5.15902166565258E-05 0.00240409554647548 0.0108339060097933
-0.00108670377482971 0.00247937326452562 0.0110780503600836
-0.00106560304938328 0.00247937326452562 0.0110780503600836
-0.00104306307133465 0.00247595771881087 0.0110627906396985
-0.00101917171318616 0.00246912759418289 0.0110322730615735
-0.000989874612894797 0.00244863716175868 0.0109407184645534
-0.000964980534322204 0.00243839197481672 0.0108949420973659
-0.000942905586035479 0.00243497642910197 0.0108796823769808
-0.000919595969220002 0.00242814630447399 0.0108491647988558
-0.000897666455379554 0.00242473124216 0.0108339060097933
-0.000870854357878367 0.00240765541791916 0.0107576102018356
-0.000838301595123041 0.002373504736239 0.0106050204485655
-0.000818101410709676 0.002373504736239 0.0106050204485655
-0.000796753638202235 0.00237008967392501 0.010589761659503
-0.000775463427638724 0.00236667412821026 0.0105745019391179
-0.000753141544936668 0.00235984400358228 0.0105439843609929
-0.000731997222950061 0.0023564289412683 0.0105287255719304
-0.00070884689333893 0.00234618372505619 0.0104829482734203
-0.00068587140401914 0.00233593805471347 0.0104371709749103
-0.000664043615439108 0.00232910793008549 0.0104066533967853
-0.00064138737995 0.00231886271387339 0.0103608760982752
-0.000617990457408484 0.0023052024353473 0.0102998400107026
-0.000598371560197501 0.0023052024353473 0.0102998400107026
-0.000578753117117144 0.0023052024353473 0.0102998400107026
-0.000559962554169552 0.00230861749766128 0.0103150987997651
-0.000542712514953953 0.00231886271387339 0.0103608760982752
-0.000522977360302493 0.00231886271387339 0.0103608760982752
-0.00050546619597645 0.00232910793008549 0.0104066533967853
-0.000486355925067549 0.00233252299239948 0.0104219121858478
-0.000467187525438411 0.00233593805471347 0.0104371709749103
-0.000447307503116982 0.00233593805471347 0.0104371709749103
-0.000428676906795728 0.00234276866274221 0.0104676894843578
-0.000409334121005875 0.00234618372505619 0.0104829482734203
-0.00039106682918611 0.0023564289412683 0.0105287255719304
-0.000371012420703967 0.0023564289412683 0.0105287255719304
-0.000352483436997448 0.00236667412821026 0.0105745019391179
-0.000332821055891968 0.00237008967392501 0.010589761659503
-0.000314001428584257 0.00238033486086698 0.0106355380266905
-0.000293743569581281 0.00238033486086698 0.0106355380266905
-0.000273485256447678 0.00238033486086698 0.0106355380266905
-0.000254680273965711 0.00239399513939307 0.0106965741142631
-0.000234974296320052 0.00240082529329118 0.0107270926237106
-0.000214847226937612 0.00240424035560517 0.0107423514127731
-0.000194661574704305 0.00240765541791916 0.0107576102018356
-0.000174664953457457 0.0024144860259479 0.0107881287112832
-0.000154115996722663 0.0024144860259479 0.0107881287112832
-0.000133756412459271 0.00241790108826189 0.0108033875003457
-0.000113498211971351 0.00242473124216 0.0108339060097933
-9.28620621562003E-05 0.00242473124216 0.0108339060097933
-7.23276376014661E-05 0.00242814630447399 0.0108491647988558
-5.16628775568233E-05 0.00242814630447399 0.0108491647988558
-0.00108969740392197 0.00250736269745089 0.0111085679382086
-0.00106560304938328 0.00250047444410267 0.0110780503600836
-0.00104450186980622 0.00250047444410267 0.0110780503600836
-0.00102199095611771 0.0024970298340278 0.0110627906396985
-0.000989874612894797 0.00246947630796404 0.0109407184645534
-0.000967683519813276 0.00246603218128993 0.0109254596754909
-0.000942905586035479 0.00245569977199748 0.0108796823769808
-0.000919595969220002 0.00244881151864926 0.0108491647988558
-0.000898930755044733 0.00244881151864926 0.0108491647988558
-0.000877030305564404 0.00244536739197515 0.0108339060097933
-0.000853982155344316 0.0024384791093568 0.0108033875003457
-0.000818101410709676 0.00239370446652174 0.0106050204485655
-0.000796753638202235 0.00239026033984763 0.010589761659503
-0.000775463427638724 0.00238681618390339 0.0105745019391179
-0.000753141544936668 0.00237992793055517 0.0105439843609929
-0.000731997222950061 0.00237648380388107 0.0105287255719304
-0.000710910462907382 0.00237303964793682 0.0105134658515453
-0.000687876957513037 0.0023627072679145 0.0104676894843578
-0.000665017271503096 0.00235237440449141 0.0104219121858478
-0.00064233197165387 0.00234204199519895 0.0103761348873377
-0.000620737152085418 0.00233515374185074 0.0103456173092127
-0.000599258023181132 0.00232826500510176 0.0103150987997651
-0.000581324971502735 0.00233515374185074 0.0103456173092127
-0.000561619335342021 0.00233515374185074 0.0103456173092127
-0.000542712514953953 0.00233859786852485 0.0103608760982752
-0.000523747565845648 0.00234204199519895 0.0103761348873377
-0.000506207337159486 0.00235237440449141 0.0104219121858478
-0.000487068001890466 0.00235581853116552 0.0104371709749103
-0.000468553663009689 0.0023627072679145 0.0104676894843578
-0.000448615057837395 0.0023627072679145 0.0104676894843578
-0.000429301790538288 0.00236615139458861 0.0104829482734203
-0.000410525759770757 0.00237303964793682 0.0105134658515453
-0.00039106682918611 0.00237648380388107 0.0105287255719304
-0.000371012420703967 0.00237648380388107 0.0105287255719304
-0.000352483436997448 0.00238681618390339 0.0105745019391179
-0.000333300617833932 0.00239370446652174 0.0106050204485655
-0.000314452038811785 0.00240403732994483 0.0106507977470756
-0.000293743569581281 0.00240059271986995 0.0106355380266905
-0.000273877737954968 0.00240403732994483 0.0106507977470756
-0.000254316969464223 0.00241092558329304 0.0106813153252006
-0.000235308536461421 0.00242470211925961 0.0107423514127731
-0.000215152402718861 0.00242814624593371 0.0107576102018356
-0.000195213910192251 0.00243503498268269 0.0107881287112832
-0.000174664953457457 0.00243503498268269 0.0107881287112832
-0.000154333979423557 0.0024384791093568 0.0108033875003457
-0.000134133907655875 0.00244536739197515 0.0108339060097933
-0.000113658065952005 0.00244881151864926 0.0108491647988558
-9.32544310178075E-05 0.00245569977199748 0.0108796823769808
-7.25310881223001E-05 0.00245569977199748 0.0108796823769808
-5.1808199357419E-05 0.00245569977199748 0.0108796823769808
-0.00108969740392197 0.00252852155161755 0.0111085679382086
-0.0010685385497553 0.00252852155161755 0.0111085679382086
-0.00104450186980622 0.0025215751695491 0.0110780503600836
-0.00102199095611771 0.00251810194924474 0.0110627906396985
-0.000992635839751788 0.00249726231963862 0.0109712369740009
-0.000967683519813276 0.0024868427172658 0.0109254596754909
-0.000944228127066578 0.00247989633519735 0.0108949420973659
-0.000922182697270598 0.00247642311489298 0.0108796823769808
-0.00090145935437509 0.00247642311489298 0.0108796823769808
-0.000878265540869463 0.00246947673282453 0.0108491647988558
-0.00085760078082482 0.00246947673282453 0.0108491647988558
-0.000839289779819194 0.00247642311489298 0.0108796823769808
-0.000796753638202235 0.00241043145990088 0.010589761659503
-0.000775463427638724 0.00240695823959651 0.0105745019391179
-0.000755321371945596 0.00240695823959651 0.0105745019391179
-0.000731997222950061 0.00239653866649384 0.0105287255719304
-0.000710910462907382 0.00239306499205885 0.0105134658515453
-0.000688879677937145 0.00238611860999039 0.0104829482734203
-0.000665990927567084 0.00237569900761758 0.0104371709749103
-0.000644221267707291 0.00236875262554912 0.0104066533967853
-0.000621652679429167 0.00235833256904568 0.0103608760982752
-0.000601917524777707 0.00235833256904568 0.0103608760982752
-0.000583039768749759 0.00236180576007991 0.0103761348873377
-0.000564932785041275 0.00236875262554912 0.0104066533967853
-0.000545110437309458 0.00236875262554912 0.0104066533967853
-0.000526058295120795 0.00237222581658335 0.0104219121858478
-0.000506948478342521 0.00237569900761758 0.0104371709749103
-0.000488492268181982 0.00238264541895617 0.0104676894843578
-0.000469236675472487 0.00238611860999039 0.0104829482734203
-0.000449269005940074 0.00238611860999039 0.0104829482734203
-0.000430551558023407 0.00239306499205885 0.0105134658515453
-0.000410525759770757 0.00239306499205885 0.0105134658515453
-0.00039106682918611 0.00239653866649384 0.0105287255719304
-0.00037155011136617 0.00240001185752806 0.0105439843609929
-0.000352992175945213 0.00241043145990088 0.010589761659503
-0.000333300617833932 0.00241390465093511 0.0106050204485655
-0.000314452038811785 0.00242432425330792 0.0106507977470756
-0.00029416511544869 0.00242432425330792 0.0106507977470756
-0.000274662475678183 0.00243127063537637 0.0106813153252006
-0.000254680273965711 0.0024347438264106 0.0106965741142631
-0.000235308536461421 0.00244516388291404 0.0107423514127731
-0.000215762412796417 0.00245558348528686 0.0107881287112832
-0.000195490021613382 0.00245905667632109 0.0108033875003457
-0.000175406207286176 0.0024660035417903 0.0108339060097933
-0.000154988040171918 0.00246947673282453 0.0108491647988558
-0.000134322825996648 0.00246947673282453 0.0108491647988558
-0.000113977773913316 0.00247642311489298 0.0108796823769808
-9.33853332840259E-05 0.00247989633519735 0.0108949420973659
-7.26329260283994E-05 0.00247989633519735 0.0108949420973659
-5.18805187727719E-05 0.00247989633519735 0.0108949420973659
-3.11285656477717E-05 0.00247989633519735 0.0108949420973659
-0.00108969740392197 0.00254968085991485 0.0111085679382086
-0.0010685385497553 0.00254968085991485 0.0111085679382086
-0.00104450186980622 0.00254267634912616 0.0110780503600836
-0.00102199095611771 0.00253917406446167 0.0110627906396985
-0.000992635839751788 0.00251816004869484 0.0109712369740009
-0.000969035012558813 0.00251115550863601 0.0109407184645534
-0.000946872983837411 0.00250765325324166 0.0109254596754909
-0.000923476173941578 0.00250064874245297 0.0108949420973659
-0.00090145935437509 0.00249714600365786 0.0108796823769808
-0.000878265540869463 0.00249014149286917 0.0108491647988558
-0.000856394609879879 0.00248663923747483 0.0108339060097933
-0.000835758460064729 0.00248663923747483 0.0108339060097933
-0.000796753638202235 0.00243060257995413 0.010589761659503
-0.000776582518148989 0.00243060257995413 0.010589761659503
-0.000755321371945596 0.00242709984115901 0.0105745019391179
-0.000731997222950061 0.00241659307497598 0.0105287255719304
-0.000710910462907382 0.0024130907903115 0.0105134658515453
-0.000690885118785359 0.0024130907903115 0.0105134658515453
-0.000667938352340743 0.00240258402412846 0.0104676894843578
-0.000646110451115029 0.002395579029939 0.0104371709749103
-0.000624399374106101 0.00238857451915031 0.0104066533967853
-0.000604577026374283 0.00238857451915031 0.0104066533967853
-0.000584754678642466 0.00238857451915031 0.0104066533967853
-0.000564932785041275 0.00238857451915031 0.0104066533967853
-0.000545909707212732 0.00239207677454466 0.0104219121858478
-0.00052682850066395 0.002395579029939 0.0104371709749103
-0.000508430419223649 0.00240258402412846 0.0104676894843578
-0.000488492268181982 0.00240258402412846 0.0104676894843578
-0.000469236675472487 0.00240608627952281 0.0104829482734203
-0.000450576902145431 0.0024130907903115 0.0105134658515453
-0.000430551558023407 0.0024130907903115 0.0105134658515453
-0.00041112169179888 0.00241659307497598 0.0105287255719304
-0.000391633584208431 0.00242009533037032 0.0105439843609929
-0.000372625492690575 0.00242709984115901 0.0105745019391179
-0.000353500802247297 0.00243410483534847 0.0106050204485655
-0.000334739416305507 0.00244461163080164 0.0106507977470756
-0.000314452038811785 0.00244461163080164 0.0106507977470756
-0.000295007981892143 0.00245161614159033 0.0106813153252006
-0.000275054844539789 0.00245511839698468 0.0106965741142631
-0.000255770300115857 0.00246562564656848 0.0107423514127731
-0.00023564277660279 0.00246912790196282 0.0107576102018356
-0.000215762412796417 0.00247613244202165 0.0107881287112832
-0.000196318014391831 0.00249014149286917 0.0108491647988558
-0.000176147348469212 0.00249714600365786 0.0108796823769808
-0.000155424005573704 0.00249714600365786 0.0108796823769808
-0.000134889693664653 0.00250064874245297 0.0108949420973659
-0.000114137286409026 0.00250064874245297 0.0108949420973659
-9.36469125250973E-05 0.00250765325324166 0.0109254596754909
-7.29381018096491E-05 0.00251115550863601 0.0109407184645534
-5.20985014736651E-05 0.00251115550863601 0.0109407184645534
-3.12593552683083E-05 0.00251115550863601 0.0109407184645534
-1.10882245713756E-05 0.00267226142454005 0.0116426339372993
-0.00108969740392197 0.00257083971408151 0.0111085679382086
-0.0010685385497553 0.00257083971408151 0.0111085679382086
-0.00104450186980622 0.00256377752870321 0.0110780503600836
-0.00102340069022917 0.00256377752870321 0.0110780503600836
-0.000994016396857443 0.00254258909750552 0.0109864957630634
-0.000971738110695566 0.00253905777775106 0.0109712369740009
-0.000948195412222828 0.00253199465484137 0.0109407184645534
-0.000923476173941578 0.00252140069557797 0.0108949420973659
-0.00090145935437509 0.00251786934655337 0.0108796823769808
-0.000880736011479582 0.00251786934655337 0.0108796823769808
-0.000853982155344316 0.00250021271851091 0.0108033875003457
-0.000829872701849256 0.00248961827584675 0.0107576102018356
-0.000809382327965327 0.00248961827584675 0.0107576102018356
-0.00077993945174274 0.00246136720514014 0.0106355380266905
-0.000757501311600208 0.00245430456563121 0.0106050204485655
-0.000733058072094406 0.00244017925734321 0.0105439843609929
-0.000712974145121517 0.00244017925734321 0.0105439843609929
-0.000691887497724521 0.00243664793758875 0.0105287255719304
-0.000670859320532707 0.00243311658856415 0.0105134658515453
-0.000648944338872319 0.00242605394905522 0.0104829482734203
-0.0006262304287936 0.00241545950639106 0.0104371709749103
-0.000606349952341545 0.00241545950639106 0.0104371709749103
-0.000586469475889489 0.00241545950639106 0.0104371709749103
-0.000566589453568061 0.00241545950639106 0.0104371709749103
-0.000548307629568236 0.00242252262930075 0.0104676894843578
-0.000529139229939098 0.00242605394905522 0.0104829482734203
-0.000509171560406685 0.00242605394905522 0.0104829482734203
-0.000489204345004899 0.00242605394905522 0.0104829482734203
-0.000470602700398082 0.00243311658856415 0.0105134658515453
-0.000450576902145431 0.00243311658856415 0.0105134658515453
-0.00043117655441165 0.00243664793758875 0.0105287255719304
-0.00041171751118132 0.00244017925734321 0.0105439843609929
-0.000393333961921078 0.00245077324587674 0.010589761659503
-0.000373162841867832 0.00245077324587674 0.010589761659503
-0.000353500802247297 0.00245430456563121 0.0106050204485655
-0.000335698540189436 0.00247196164780429 0.0106813153252006
-0.000315803531557321 0.00247549296755876 0.0106965741142631
-0.000296271940072377 0.00248255563633782 0.0107270926237106
-0.000276232063770294 0.00248608695609229 0.0107423514127731
-0.000256133604617345 0.00248961827584675 0.0107576102018356
-0.000236311369531211 0.00249668139875645 0.0107881287112832
-0.000216678052785851 0.00250727538728998 0.0108339060097933
-0.000196318014391831 0.00251080670704444 0.0108491647988558
-0.000176147348469212 0.00251786934655337 0.0108796823769808
-0.000155424005573704 0.00251786934655337 0.0108796823769808
-0.000134889693664653 0.00252140069557797 0.0108949420973659
-0.000114456994370335 0.0025284633350869 0.0109254596754909
-9.36469125250973E-05 0.0025284633350869 0.0109254596754909
-7.29381018096491E-05 0.00253199465484137 0.0109407184645534
-5.20985014736651E-05 0.00253199465484137 0.0109407184645534
-3.32647854728351E-05 0.00269443843957214 0.0116426339372993
-1.10882245713756E-05 0.00269443843957214 0.0116426339372993
1.10883363300847E-05 0.00269443843957214 0.0116426339372993
-0.0010911942184681 0.00259555986062402 0.0111238267272711
-0.00107000629994131 0.00259555986062402 0.0111238267272711
-0.0010488179272839 0.00259555986062402 0.0111238267272711
-0.00102621993316071 0.00259199947650943 0.0111085679382086
-0.00100229996478274 0.00258487870828027 0.0110780503600836
-0.000975792701577856 0.00257063668842117 0.011017014272511
-0.00095216281002476 0.00256351589092187 0.0109864957630634
-0.000927356266017471 0.00255283425517735 0.0109407184645534
-0.000902723766685951 0.0025421531028336 0.0108949420973659
-0.000880736011479582 0.00253859268944888 0.0108796823769808
-0.000853982155344316 0.0025207902854752 0.0108033875003457
-0.000832227027664581 0.00251722990136061 0.0107881287112832
-0.000808234285740625 0.00250654871974673 0.0107423514127731
-0.000781058542253006 0.00248518593165846 0.0106507977470756
-0.000759681138609136 0.00248162551827374 0.0106355380266905
-0.000736240732173124 0.00247094436592999 0.010589761659503
-0.000712974145121517 0.0024602631843161 0.0105439843609929
-0.000691887497724521 0.00245670280020152 0.0105287255719304
-0.000670859320532707 0.00245314193268617 0.0105134658515453
-0.000650833522280057 0.00245314193268617 0.0105134658515453
-0.000628061141996156 0.00244246078034242 0.0104676894843578
-0.000606349952341545 0.00243533998284312 0.0104371709749103
-0.000586469475889489 0.00243533998284312 0.0104371709749103
-0.000568245780609902 0.00244246078034242 0.0104676894843578
-0.000548307629568236 0.00244246078034242 0.0104676894843578
-0.000530679641025406 0.00245314193268617 0.0105134658515453
-0.000510653842772756 0.00245314193268617 0.0105134658515453
-0.000490628498650733 0.00245314193268617 0.0105134658515453
-0.000471285825506562 0.00245670280020152 0.0105287255719304
-0.000451230962893792 0.00245670280020152 0.0105287255719304
-0.000433051205639328 0.00246738395254527 0.0105745019391179
-0.000412909149946201 0.00246738395254527 0.0105745019391179
-0.000393333961921078 0.00247094436592999 0.010589761659503
-0.000373162841867832 0.00247094436592999 0.010589761659503
-0.000353500802247297 0.00247450475004457 0.0106050204485655
-0.000335698540189436 0.00249230669988763 0.0106813153252006
-0.000316704639366694 0.00250298833563214 0.0107270926237106
-0.000296693373294104 0.00250654871974673 0.0107423514127731
-0.0002766244326319 0.00251010910386131 0.0107576102018356
-0.000256860326266004 0.00251722990136061 0.0107881287112832
-0.000236311369531211 0.00251722990136061 0.0107881287112832
-0.0002169832285671 0.00253147192121971 0.0108491647988558
-0.000196318014391831 0.00253147192121971 0.0108491647988558
-0.000176147348469212 0.00253859268944888 0.0108796823769808
-0.000155642100920279 0.0025421531028336 0.0108949420973659
-0.0001352675303462 0.00254927387106277 0.0109254596754909
-0.000114616848350991 0.00255283425517735 0.0109407184645534
-9.37777021456331E-05 0.00255283425517735 0.0109407184645534
-7.31416649761658E-05 0.00255995550680728 0.0109712369740009
-5.22439359199435E-05 0.00255995550680728 0.0109712369740009
-3.32647854728351E-05 0.00271661454634297 0.0116426339372993
-1.10882245713756E-05 0.00271661454634297 0.0116426339372993
1.10883363300847E-05 0.00271661454634297 0.0116426339372993
3.31773626662439E-05 0.00270949329471304 0.0116121154278517
-0.00109418796020604 0.00262392715950097 0.0111543452367187
-0.00107294191295902 0.00262392715950097 0.0111543452367187
-0.0010488179272839 0.0026167477791508 0.0111238267272711
-0.00102621993316071 0.0026131583306761 0.0111085679382086
-0.00100506107899405 0.0026131583306761 0.0111085679382086
-0.000977144194323392 0.00259521060490182 0.0110322730615735
-0.000954807779441277 0.00259162161055775 0.011017014272511
-0.000929943106713749 0.00258085278173288 0.0109712369740009
-0.000905252366016308 0.00257008440703863 0.0109254596754909
-0.000880736011479582 0.00255931557821376 0.0108796823769808
-0.00085760078082482 0.00255213668126435 0.0108491647988558
-0.000833404134249404 0.00254136830657011 0.0108033875003457
-0.000809382327965327 0.00253059993187586 0.0107576102018356
-0.000786653544221605 0.00252342103492646 0.0107270926237106
-0.000760771164759283 0.00250547330915218 0.0106507977470756
-0.00073730158131747 0.00249470493445794 0.0106050204485655
-0.00071503771468997 0.00248752555410777 0.0105745019391179
-0.000692890218148628 0.00248034665715836 0.0105439843609929
-0.000670859320532707 0.00247316773093882 0.0105134658515453
-0.000650833522280057 0.00247316773093882 0.0105134658515453
-0.000628061141996156 0.00246239938551471 0.0104676894843578
-0.000608122990954489 0.00246239938551471 0.0104676894843578
-0.000588184385782196 0.00246239938551471 0.0104676894843578
-0.000568245780609902 0.00246239938551471 0.0104676894843578
-0.00054910689947151 0.00246598883398942 0.0104829482734203
-0.000530679641025406 0.00247316773093882 0.0105134658515453
-0.000511395096601475 0.00247675720868366 0.0105287255719304
-0.000491340688119331 0.00247675720868366 0.0105287255719304
-0.000471968837969359 0.00248034665715836 0.0105439843609929
-0.000451884910996471 0.00248034665715836 0.0105439843609929
-0.000433675747896943 0.00249111548598324 0.010589761659503
-0.000414100901356765 0.00249470493445794 0.0106050204485655
-0.000395034226988043 0.00250188383140734 0.0106355380266905
-0.000375313717162325 0.00250547330915218 0.0106507977470756
-0.000356044046403397 0.00251265220610159 0.0106813153252006
-0.0003361781021314 0.00251624165457629 0.0106965741142631
-0.00031715513694854 0.00252701048340116 0.0107423514127731
-0.000297114806515829 0.00253059993187586 0.0107576102018356
-0.000277408828870171 0.00253777885809541 0.0107881287112832
-0.000257223630767493 0.00254136830657011 0.0108033875003457
-0.00023764844274237 0.00255213668126435 0.0108491647988558
-0.0002169832285671 0.00255213668126435 0.0108491647988558
-0.000196870237234093 0.00255931557821376 0.0108796823769808
-0.000176147348469212 0.00255931557821376 0.0108796823769808
-0.000155642100920279 0.00256290551008923 0.0108949420973659
-0.0001352675303462 0.00257008440703863 0.0109254596754909
-0.000114616848350991 0.00257367385551333 0.0109407184645534
-9.40393940323872E-05 0.00258085278173288 0.0109712369740009
-7.34469534030974E-05 0.00259162161055775 0.011017014272511
-5.24620312665185E-05 0.00259162161055775 0.011017014272511
-3.33519785531925E-05 0.00274596955006321 0.0116731515154243
-1.10882245713756E-05 0.00273879065311381 0.0116426339372993
1.10593846156491E-05 0.00273161218102489 0.0116121154278517
3.31773626662439E-05 0.00273161218102489 0.0116121154278517
-0.00113909318510975 0.00275373015907549 0.0116121154278517
-0.00107294191295902 0.002645173206748 0.0111543452367187
-0.00105169541158137 0.002645173206748 0.0111543452367187
-0.00102762955462649 0.00263793569767759 0.0111238267272711
-0.00100506107899405 0.00263431718484277 0.0111085679382086
-0.000979847179814464 0.00262346207119879 0.0110627906396985
-0.000954807779441277 0.00261260653269433 0.011017014272511
-0.000931236470739046 0.00260536902362392 0.0109864957630634
-0.000905252366016308 0.0025908949430145 0.0109254596754909
-0.000881971359430325 0.00258365791734485 0.0108949420973659
-0.000853982155344316 0.00256194632766502 0.0108033875003457
-0.000832227027664581 0.0025583278148302 0.0107881287112832
-0.000809382327965327 0.00255109030575979 0.0107576102018356
-0.000786653544221605 0.00254385328009015 0.0107270926237106
-0.000762950991768213 0.00253299771231555 0.0106813153252006
-0.000739423279606161 0.00252214169041032 0.0106355380266905
-0.000716069612119879 0.00251128615190585 0.010589761659503
-0.000692890218148628 0.00250043058413125 0.0105439843609929
-0.000670859320532707 0.00249319352919147 0.0105134658515453
-0.000650833522280057 0.00249319352919147 0.0105134658515453
-0.000628061141996156 0.00248233799068701 0.0104676894843578
-0.000608122990954489 0.00248233799068701 0.0104676894843578
-0.000588184385782196 0.00248233799068701 0.0104676894843578
-0.000569074114873296 0.00248595650352183 0.0104829482734203
-0.00054910689947151 0.00248595650352183 0.0104829482734203
-0.000530679641025406 0.00249319352919147 0.0105134658515453
-0.000511395096601475 0.00249681207129643 0.0105287255719304
-0.000491340688119331 0.00249681207129643 0.0105287255719304
-0.000471968837969359 0.00250043058413125 0.0105439843609929
-0.000453192807201828 0.00250766760980089 0.0105745019391179
-0.000433675747896943 0.00251128615190585 0.010589761659503
-0.000414100901356765 0.00251490466474068 0.0106050204485655
-0.000395034226988043 0.00252214169041032 0.0106355380266905
-0.00037638909848673 0.00253299771231555 0.0106813153252006
-0.000356552672705479 0.00253661622515037 0.0106965741142631
-0.000337616900602977 0.00254747179292497 0.0107423514127731
-0.000317605634530384 0.00255109030575979 0.0107576102018356
-0.000297114806515829 0.00255109030575979 0.0107576102018356
-0.000277408828870171 0.0025583278148302 0.0107881287112832
-0.000257223630767493 0.00256194632766502 0.0108033875003457
-0.00023764844274237 0.00257280189543962 0.0108491647988558
-0.000217593580129601 0.00258003892110927 0.0108796823769808
-0.000196870237234093 0.00258003892110927 0.0108796823769808
-0.000176394508175907 0.00258365791734485 0.0108949420973659
-0.000156078066322065 0.0025908949430145 0.0109254596754909
-0.000135456448686975 0.00259451345584932 0.0109407184645534
-0.000114616848350991 0.00259451345584932 0.0109407184645534
-9.41701836529229E-05 0.00260536902362392 0.0109864957630634
-7.35486786635148E-05 0.00261622504552915 0.0110322730615735
-5.24620312665185E-05 0.00261260653269433 0.011017014272511
-3.14771091299397E-05 0.00261260653269433 0.011017014272511
-1.10590475655729E-05 0.00275373015907549 0.0116121154278517
1.104485243559E-05 0.00275011164624066 0.0115968566387892
3.31337661260657E-05 0.00275011164624066 0.0115968566387892
-0.00113759637056362 0.00277220055993114 0.0115968566387892
-0.00107294191295902 0.00266641925399502 0.0111543452367187
-0.00105169541158137 0.00266641925399502 0.0111543452367187
-0.00102762955462649 0.00265912452446563 0.0111238267272711
-0.00100506107899405 0.00265547694727069 0.0111085679382086
-0.000981198785205682 0.00264818179288081 0.0110780503600836
-0.000956130207826694 0.00263723857789522 0.0110322730615735
-0.000933823311435324 0.00263359100070028 0.011017014272511
-0.000906516665681487 0.00261535260205467 0.0109407184645534
-0.000881971359430325 0.00260440987046985 0.0108949420973659
-0.000853982155344316 0.00258252389462931 0.0108033875003457
-0.000832227027664581 0.00257887631743437 0.0107881287112832
-0.000809382327965327 0.00257158113377435 0.0107576102018356
-0.000786653544221605 0.00256428597938447 0.0107270926237106
-0.000762950991768213 0.00255334321852951 0.0106813153252006
-0.000739423279606161 0.00254240000354392 0.0106355380266905
-0.000712974145121517 0.00252051451110414 0.0105439843609929
-0.000691887497724521 0.0025168669339092 0.0105287255719304
-0.000670859320532707 0.0025132188733135 0.0105134658515453
-0.000648944338872319 0.00250592371892361 0.0104829482734203
-0.000628061141996156 0.00250227614172867 0.0104676894843578
-0.000608122990954489 0.00250227614172867 0.0104676894843578
-0.000586469475889489 0.00249498095806865 0.0104371709749103
-0.000569074114873296 0.00250592371892361 0.0104829482734203
-0.00054910689947151 0.00250592371892361 0.0104829482734203
-0.000530679641025406 0.0025132188733135 0.0105134658515453
-0.000511395096601475 0.0025168669339092 0.0105287255719304
-0.000491340688119331 0.0025168669339092 0.0105287255719304
-0.000471968837969359 0.00252051451110414 0.0105439843609929
-0.000453846867950189 0.0025314572719591 0.010589761659503
-0.000433675747896943 0.0025314572719591 0.010589761659503
-0.000415292540121646 0.00254240000354392 0.0106355380266905
-0.000395601094656047 0.00254604806413963 0.0106507977470756
-0.000376926789148932 0.00255699079572445 0.0106965741142631
-0.000357569583824702 0.00256428597938447 0.0107270926237106
-0.00033809646254494 0.00257158113377435 0.0107576102018356
-0.000317605634530384 0.00257158113377435 0.0107576102018356
-0.000297957785604965 0.00257887631743437 0.0107881287112832
-0.000278586048100675 0.00258981953241995 0.0108339060097933
-0.000257950352416152 0.00258981953241995 0.0108339060097933
-0.00023764844274237 0.00259346710961489 0.0108491647988558
-0.000217593580129601 0.00260076226400478 0.0108796823769808
-0.000196870237234093 0.00260076226400478 0.0108796823769808
-0.000176394508175907 0.00260440987046985 0.0108949420973659
-0.000156078066322065 0.00261170502485973 0.0109254596754909
-0.000135834398014205 0.00262264778571469 0.0109712369740009
-0.000115096522938637 0.00262629536290964 0.0109864957630634
-9.44314214090499E-05 0.00263359100070028 0.011017014272511
-7.35486786635148E-05 0.00263723857789522 0.0110322730615735
-5.25346921668168E-05 0.00263723857789522 0.0110322730615735
-3.1520705670118E-05 0.00263723857789522 0.0110322730615735
-1.10445153855138E-05 0.00277220055993114 0.0115968566387892
1.101578807547E-05 0.00276490540554126 0.0115663390606642
3.29594926110344E-05 0.00275761067601187 0.0115358205512166
-0.00113460274147136 0.00278693709877275 0.0115663390606642
-0.00107294191295902 0.0026876662095033 0.0111543452367187
-0.00105169541158137 0.0026876662095033 0.0111543452367187
-0.00103044891020372 0.0026876662095033 0.0111543452367187
-0.0010064416360997 0.00268031244299241 0.0111238267272711
-0.000983901770696753 0.00267663580143736 0.0111085679382086
-0.000958775064597527 0.00266560539337141 0.0110627906396985
-0.000933823311435324 0.00265457546870623 0.011017014272511
-0.000906516665681487 0.00263619220239066 0.0109407184645534
-0.000881971359430325 0.00262516227772548 0.0108949420973659
-0.000860013122714701 0.00262148515276966 0.0108796823769808
-0.000833404134249404 0.00260310191572422 0.0108033875003457
-0.000809382327965327 0.0025920719617889 0.0107576102018356
-0.000787772522086188 0.00258839532023384 0.0107423514127731
-0.000764040905272676 0.0025773649121679 0.0106965741142631
-0.000740484241396188 0.00256633498750272 0.0106507977470756
-0.00071503771468997 0.00254795126705652 0.0105745019391179
-0.000691887497724521 0.00253692134239134 0.0105287255719304
-0.000670859320532707 0.00253324467156615 0.0105134658515453
-0.000648944338872319 0.00252589138845603 0.0104829482734203
-0.000628061141996156 0.00252221474690097 0.0104676894843578
-0.000608122990954489 0.00252221474690097 0.0104676894843578
-0.000588184385782196 0.00252221474690097 0.0104676894843578
-0.000570730783400081 0.00253324467156615 0.0105134658515453
-0.000550705439278058 0.00253324467156615 0.0105134658515453
-0.000531449959214244 0.00253692134239134 0.0105287255719304
-0.000512136237784511 0.0025405979839464 0.0105439843609929
-0.000493476918588082 0.00254795126705652 0.0105745019391179
-0.000473334862894955 0.00254795126705652 0.0105745019391179
-0.000453846867950189 0.00255162839201235 0.010589761659503
-0.000434300631639503 0.00255530503356741 0.0106050204485655
-0.000414100901356765 0.00255530503356741 0.0106050204485655
-0.000397301359723011 0.0025773649121679 0.0106965741142631
-0.000378002283119019 0.00258471867867878 0.0107270926237106
-0.000358078210126786 0.00258839532023384 0.0107423514127731
-0.00033809646254494 0.0025920719617889 0.0107576102018356
-0.000318506742339758 0.00259942527416916 0.0107881287112832
-0.000297957785604965 0.00259942527416916 0.0107881287112832
-0.000278586048100675 0.00261045522810448 0.0108339060097933
-0.00025831365691764 0.00261413186965954 0.0108491647988558
-0.000238316923025108 0.00262148515276966 0.0108796823769808
-0.000217898868556533 0.00262516227772548 0.0108949420973659
-0.000197146461300907 0.00262516227772548 0.0108949420973659
-0.000177135649358943 0.00263619220239066 0.0109407184645534
-0.000156296049022959 0.00263619220239066 0.0109407184645534
-0.000136023316354979 0.0026472226104566 0.0109864957630634
-0.00011541634354563 0.00265457546870623 0.011017014272511
-9.45622110295865E-05 0.00265825211026129 0.0110322730615735
-7.3752129184348E-05 0.00266560539337141 0.0110627906396985
-5.25346921668168E-05 0.00265825211026129 0.0110322730615735
-3.1520705670118E-05 0.00265825211026129 0.0110322730615735
-1.050671917342E-05 0.00265825211026129 0.0110322730615735
1.09863822304072E-05 0.00277958333226187 0.0115358205512166
-0.00112562162890321 0.00278673358971164 0.011474784463644
-0.00110376477596306 0.00278673358971164 0.011474784463644
-0.00105313409740726 0.0027126179626655 0.0111696040257812
-0.00103185853166949 0.0027126179626655 0.0111696040257812
-0.00100920286295669 0.00270891225675032 0.0111543452367187
-0.000985253263442289 0.0027015003615192 0.0111238267272711
-0.000958775064597527 0.00268667796271898 0.0110627906396985
-0.000935116675460622 0.00267926655088862 0.0110322730615735
-0.000910309677322705 0.00266814894974232 0.0109864957630634
-0.000884441830040443 0.00265332564268084 0.0109254596754909
-0.000853982155344316 0.00262367993681913 0.0108033875003457
-0.000832227027664581 0.00261997423090395 0.0107881287112832
-0.000811678070929788 0.00261997423090395 0.0107881287112832
-0.000788891499950772 0.00261256233567283 0.0107576102018356
-0.000766220844927288 0.00260515092384248 0.0107270926237106
-0.000739423279606161 0.0025829161756805 0.0106355380266905
-0.00071503771468997 0.00256809332274965 0.0105745019391179
-0.000692890218148628 0.00256068191091929 0.0105439843609929
-0.000671833089242378 0.00255697620500411 0.0105287255719304
-0.000650833522280057 0.0025532704698188 0.0105134658515453
-0.000628976669339906 0.00254585905798844 0.0104829482734203
-0.000609009453938121 0.00254585905798844 0.0104829482734203
-0.000588184385782196 0.00254215335207326 0.0104676894843578
-0.000571559230309156 0.00255697620500411 0.0105287255719304
-0.000551504821827014 0.00255697620500411 0.0105287255719304
-0.000532220164757399 0.00256068191091929 0.0105439843609929
-0.000512136237784511 0.00256068191091929 0.0105439843609929
-0.000494188653926054 0.00257179905793497 0.010589761659503
-0.000474017988003435 0.00257179905793497 0.010589761659503
-0.000454500816052868 0.00257550476385014 0.0106050204485655
-0.000434300631639503 0.00257550476385014 0.0106050204485655
-0.00041767593029709 0.00259773948274198 0.0106965741142631
-0.000399001737435659 0.00260885662975765 0.0107423514127731
-0.000378539973781222 0.00260885662975765 0.0107423514127731
-0.000358586836428869 0.00261256233567283 0.0107576102018356
-0.000339055699074551 0.00261997423090395 0.0107881287112832
-0.000318506742339758 0.00261997423090395 0.0107881287112832
-0.000298379218826691 0.00262367993681913 0.0108033875003457
-0.000278586048100675 0.00263109137791963 0.0108339060097933
-0.00025831365691764 0.00263479708383481 0.0108491647988558
-0.000238316923025108 0.00264220849566516 0.0108796823769808
-0.000218509220119033 0.00265332564268084 0.0109254596754909
-0.000197974795564299 0.00265703134859602 0.0109407184645534
-0.000177629401996022 0.00266444324382714 0.0109712369740009
-0.000156732127070427 0.00266444324382714 0.0109712369740009
-0.000136401265682208 0.00267556084497344 0.011017014272511
-0.000115576197526284 0.00267926655088862 0.0110322730615735
-9.48237902706579E-05 0.00268667796271898 0.0110627906396985
-7.3752129184348E-05 0.00268667796271898 0.0110627906396985
-5.26800139674117E-05 0.00268667796271898 0.0110627906396985
-3.16078987504754E-05 0.00268667796271898 0.0110627906396985
-1.05357835335392E-05 0.00268667796271898 0.0110627906396985
1.05358775527708E-05 0.00268667796271898 0.0110627906396985
-0.00112562162890321 0.00280858998852117 0.011474784463644
-0.00109055525312821 0.00277497699750321 0.0113374534994364
-0.00105313409740726 0.0027338939825339 0.0111696040257812
-0.00103185853166949 0.0027338939825339 0.0111696040257812
-0.00100920286295669 0.0027301592122586 0.0111543452367187
-0.000985253263442289 0.00272268918830724 0.0111238267272711
-0.000958775064597527 0.00270774962380529 0.0110627906396985
-0.000937703403511217 0.00270774962380529 0.0110627906396985
-0.000914102688963924 0.00270028008325469 0.0110322730615735
-0.000888147648601305 0.00268534051875273 0.0109712369740009
-0.000861219406305324 0.00266666709223673 0.0108949420973659
-0.000832227027664581 0.00264052273350812 0.0107881287112832
-0.000815122310249578 0.00265172752773478 0.0108339060097933
-0.000786653544221605 0.00262558362313679 0.0107270926237106
-0.000764040905272676 0.00261811405331606 0.0106965741142631
-0.000740484241396188 0.00260690974249017 0.0106507977470756
-0.000716069612119879 0.00259197017798821 0.010589761659503
-0.000694895658996843 0.00258823537844277 0.0105745019391179
-0.000672806745306367 0.00258076583789218 0.0105439843609929
-0.000651778226629609 0.00257703106761688 0.0105287255719304
-0.000630807724027406 0.00257329581394082 0.0105134658515453
-0.000610782379905383 0.00257329581394082 0.0105134658515453
-0.000589041784405708 0.00256582627339022 0.0104829482734203
-0.000570730783400081 0.00257329581394082 0.0105134658515453
-0.000551504821827014 0.00257703106761688 0.0105287255719304
-0.000532220164757399 0.00258076583789218 0.0105439843609929
-0.000512136237784511 0.00258076583789218 0.0105439843609929
-0.000494188653926054 0.00259197017798821 0.010589761659503
-0.000474701000466233 0.00259570494826351 0.0106050204485655
-0.000454500816052868 0.00259570494826351 0.0106050204485655
-0.000435550399124622 0.0026031744888141 0.0106355380266905
-0.00041767593029709 0.00261811405331606 0.0106965741142631
-0.000399568492457979 0.00263305316368739 0.0107576102018356
-0.000379077664443424 0.00263305316368739 0.0107576102018356
-0.000359604201678718 0.00264052273350812 0.0107881287112832
-0.000339055699074551 0.00264052273350812 0.0107881287112832
-0.000318957239921603 0.00264425750378342 0.0108033875003457
-0.000299222197915826 0.00265172752773478 0.0108339060097933
-0.000278978416962282 0.00265546229801008 0.0108491647988558
-0.00025940322893716 0.00266666709223673 0.0108949420973659
-0.000239319756094898 0.00267413663278733 0.0109254596754909
-0.000218814395900283 0.00267787140306263 0.0109407184645534
-0.000198527131052244 0.00268534051875273 0.0109712369740009
-0.000177876449057033 0.00268907528902803 0.0109864957630634
-0.000156950109771319 0.00268907528902803 0.0109864957630634
-0.000136401265682208 0.00269654531297939 0.011017014272511
-0.000115576197526284 0.00270028008325469 0.0110322730615735
-9.48237902706579E-05 0.00270774962380529 0.0110627906396985
-7.385351295982E-05 0.00271148487748135 0.0110780503600836
-5.26800139674117E-05 0.00270774962380529 0.0110627906396985
-3.16078987504754E-05 0.00270774962380529 0.0110627906396985
-1.05357835335392E-05 0.00270774962380529 0.0110627906396985
-0.00112262799981095 0.00282291871805986 0.011444266885519
-0.00109055525312821 0.00279657181707166 0.0113374534994364
-0.00106464380930577 0.00278527982976465 0.0112916762009263
-0.00103890675164404 0.00277398875071889 0.0112458989024162
-0.00101058342006235 0.00275516909414104 0.0111696040257812
-0.000985253263442289 0.00274387710683403 0.0111238267272711
-0.000958775064597527 0.00272882128489159 0.0110627906396985
-0.000937703403511217 0.00272882128489159 0.0110627906396985
-0.000914102688963924 0.00272129361562076 0.0110322730615735
-0.000889382883906364 0.002710002536575 0.0109864957630634
-0.000863631748195205 0.00269494671463257 0.0109254596754909
-0.000840466999049697 0.00268741904536173 0.0108949420973659
-0.00081627035247428 0.00267612705805472 0.0108491647988558
-0.000792248546190205 0.00266483552487833 0.0108033875003457
-0.000770580611590827 0.00266107169024292 0.0107881287112832
-0.000743666788829224 0.00263848816975951 0.0106965741142631
-0.000720196863902466 0.00262719666585326 0.0106507977470756
-0.000694895658996843 0.00260837698000528 0.0105745019391179
-0.000674754057434343 0.00260837698000528 0.0105745019391179
-0.000652722818333478 0.00260084931073444 0.0105439843609929
-0.000631723364016839 0.00259708547609903 0.0105287255719304
-0.000610782379905383 0.00259332161219347 0.0105134658515453
-0.000590756581652732 0.00259332161219347 0.0105134658515453
-0.000570730783400081 0.00259332161219347 0.0105134658515453
-0.000551504821827014 0.00259708547609903 0.0105287255719304
-0.000533760575843709 0.00260837698000528 0.0105745019391179
-0.000513618520150582 0.00260837698000528 0.0105745019391179
-0.000494900730748971 0.00261590513267687 0.0106050204485655
-0.000476067025391828 0.00262343280194771 0.0106355380266905
-0.000456462773006586 0.00262719666585326 0.0106507977470756
-0.000438050046740543 0.00263848816975951 0.0106965741142631
-0.000419463046959469 0.00264978015706653 0.0107423514127731
-0.000400702115148305 0.00266107169024292 0.0107881287112832
-0.000380153158413512 0.00266107169024292 0.0107881287112832
-0.000360112827980802 0.00266483552487833 0.0108033875003457
-0.000339535261016516 0.00266483552487833 0.0108033875003457
-0.000319858347730977 0.00267236367754993 0.0108339060097933
-0.000299643631137552 0.00267612705805472 0.0108491647988558
-0.000279763154685498 0.00268365472732555 0.0108796823769808
-0.000260129837940136 0.00269494671463257 0.0109254596754909
-0.000239653996236267 0.00269871054926798 0.0109407184645534
-0.000219424860108466 0.00270623870193958 0.0109712369740009
-0.000198803242473375 0.002710002536575 0.0109864957630634
-0.000178370655824741 0.00271752978098534 0.011017014272511
-0.000157385733688161 0.00271752978098534 0.011017014272511
-0.000136590184022982 0.00272129361562076 0.0110322730615735
-0.000115576197526284 0.00272129361562076 0.0110322730615735
-9.48237902706579E-05 0.00272882128489159 0.0110627906396985
-7.385351295982E-05 0.00273258560292778 0.0110780503600836
-5.26800139674117E-05 0.00272882128489159 0.0110627906396985
-3.16516079363364E-05 0.00273258560292778 0.0110780503600836
-1.05357835335392E-05 0.00272882128489159 0.0110627906396985
-0.00109055525312821 0.00281816663664012 0.0113374534994364
-0.00106752129360324 0.00281437373764458 0.0113221947103739
-0.00104172610722127 0.00280299546551846 0.0112764174118638
-0.00101610530700002 0.00279161628513109 0.0112306401133537
-0.000989307854324579 0.00277644420574818 0.0111696040257812
-0.000958775064597527 0.00274989385423916 0.0110627906396985
-0.000937703403511217 0.00274989385423916 0.0110627906396985
-0.000914102688963924 0.00274230805624809 0.0110322730615735
-0.000889382883906364 0.00273092887586071 0.0109864957630634
-0.000863631748195205 0.00271575679647781 0.0109254596754909
-0.000840466999049697 0.00270817099848673 0.0108949420973659
-0.00081627035247428 0.00269679272636062 0.0108491647988558
-0.000791129568325622 0.00268162064697771 0.0107881287112832
-0.000770580611590827 0.00268162064697771 0.0107881287112832
-0.000745788145632971 0.0026664485675948 0.0107270926237106
-0.000723292218255144 0.00265886274033359 0.0106965741142631
-0.000695898492066633 0.00263231196396408 0.010589761659503
-0.000674754057434343 0.0026285190356984 0.0105745019391179
-0.000654612001741216 0.0026285190356984 0.0105745019391179
-0.000631723364016839 0.0026171403387118 0.0105287255719304
-0.000611668955534696 0.0026171403387118 0.0105287255719304
-0.000591614092921926 0.0026171403387118 0.0105287255719304
-0.00057238756457255 0.00262093323770733 0.0105439843609929
-0.000554702014085791 0.00263231196396408 0.010589761659503
-0.000534530894032546 0.00263231196396408 0.010589761659503
-0.0005143597739793 0.00263231196396408 0.010589761659503
-0.000496324884394804 0.00264369066095068 0.0106355380266905
-0.000476750150500308 0.00264748404334698 0.0106507977470756
-0.000457770669211944 0.00265506984133806 0.0106813153252006
-0.000439299926871345 0.0026664485675948 0.0107270926237106
-0.000418867227577027 0.0026664485675948 0.0107270926237106
-0.000400702115148305 0.00268162064697771 0.0107881287112832
-0.000380153158413512 0.00268162064697771 0.0107881287112832
-0.000360112827980802 0.00268541354597324 0.0108033875003457
-0.000340494043415501 0.00269299982736508 0.0108339060097933
-0.000319858347730977 0.00269299982736508 0.0108339060097933
-0.000300908043448414 0.00270817099848673 0.0108949420973659
-0.000280155636192787 0.00270817099848673 0.0108949420973659
-0.000260129837940136 0.00271575679647781 0.0109254596754909
-0.000239653996236267 0.00271954969547334 0.0109407184645534
-0.000219730035889716 0.00273092887586071 0.0109864957630634
-0.000198803242473375 0.00273092887586071 0.0109864957630634
-0.000178370655824741 0.00273851515725255 0.011017014272511
-0.000157603716389054 0.00274230805624809 0.0110322730615735
-0.000136590184022982 0.00274230805624809 0.0110322730615735
-0.000115895905487594 0.00274989385423916 0.0110627906396985
-9.49546925368755E-05 0.00275368723663546 0.0110780503600836
-7.385351295982E-05 0.00275368723663546 0.0110780503600836
-5.26800139674117E-05 0.00274989385423916 0.0110627906396985
-3.16078987504754E-05 0.00274989385423916 0.0110627906396985
-1.05357835335392E-05 0.00274989385423916 0.0110627906396985
-0.00106752129360324 0.00283594040111417 0.0113221947103739
-0.00104313572868705 0.00282829599100209 0.0112916762009263
-0.00102024709096267 0.00282447402764644 0.0112764174118638
-0.000992010952461334 0.0028053637274674 0.0112001225352287
-0.000962742462399459 0.0027824318887932 0.0111085679382086
-0.000938996426051571 0.00277478796208189 0.0110780503600836
-0.000916631288294281 0.00277096551532547 0.0110627906396985
-0.000893088702467226 0.00276332158861416 0.0110322730615735
-0.000861219406305324 0.00272892385987299 0.0108949420973659
-0.000840466999049697 0.00272892385987299 0.0108949420973659
-0.000818566436923685 0.00272510141311657 0.0108796823769808
-0.000792248546190205 0.00270599111293753 0.0108033875003457
-0.000771670525095292 0.00270599111293753 0.0108033875003457
-0.000750031654856034 0.00270216914958187 0.0107881287112832
-0.00072535590046928 0.00268688126688912 0.0107270926237106
-0.000701914927256959 0.00267541534755202 0.0106813153252006
-0.000682543077106986 0.00267923731090767 0.0106965741142631
-0.000658390481202375 0.00266394897408429 0.0106355380266905
-0.000636301113381272 0.00265630504737298 0.0106050204485655
-0.000616101383098534 0.00265630504737298 0.0106050204485655
-0.000595901198685169 0.00265630504737298 0.0106050204485655
-0.000575701014271804 0.00265630504737298 0.0106050204485655
-0.000555501283989066 0.00265630504737298 0.0106050204485655
-0.000536841510662011 0.00266394897408429 0.0106355380266905
